ply
format ascii 1.0
comment PCL generated
element vertex 1416
property float x
property float y
property float z
property float intensity
element camera 0
property float view_px
property float view_py
property float view_pz
property float x_axisx
property float x_axisy
property float x_axisz
property float y_axisx
property float y_axisy
property float y_axisz
property float z_axisx
property float z_axisy
property float z_axisz
property float focal
property float scalex
property float scaley
property float centerx
property float centery
property int viewportx
property int viewporty
property float k1
property float k2
end_header
3.6022437 41.845364 2.8315167 255
2.9611323 41.967659 2.8445745 186
3.7285483 42.037117 2.8454261 255
2.8748183 42.245869 2.867409 107
1.4811062 42.309505 2.8790841 94
1.5920775 42.340412 2.8815084 143
2.55022 42.316467 2.8749273 208
3.8676786 42.402725 2.8713555 255
3.9925644 42.5191 2.8760135 255
1.2702346 42.600803 2.8988235 227
-1.0657202 46.103989 2.8392529 2
-0.94740731 46.163967 2.8428614 1
-0.83160901 46.133759 2.840822 0
-10.889137 10.799865 2.9055519 1
-10.803475 10.833133 2.9136488 1
17.723864 10.889997 2.9026692 10
-9.1377134 10.979626 2.9380825 3
17.340137 10.973965 2.927165 9
17.434139 10.967779 2.9240735 8
17.588297 10.932954 2.9159052 10
17.850704 10.905127 2.9067678 10
-10.728909 11.086308 2.9808879 4.5
-9.1479521 11.052326 2.9569285 10
-5.6712646 11.09268 2.9289405 171
-4.3899193 11.089426 2.913821 9
-4.2196674 11.070807 2.9067883 22.5
-4.0251503 11.078044 2.9067361 255
-3.0611744 11.08671 2.9002206 132
17.334702 11.063646 2.9506068 31.5
17.644464 11.036122 2.9427998 12
17.803623 11.002686 2.9330161 10
-10.692075 11.137977 2.9931989 1
-9.1500139 11.149464 2.9830732 7
-4.7673068 11.19839 2.9472055 255
-4.6033888 11.164429 2.9360902 255
-4.5636992 11.156509 2.9330037 255
-4.4646749 11.135777 2.9264033 157.5
-3.7662568 11.128195 2.9174504 132
-3.4552851 11.141688 2.9180658 171.66667
-3.3788888 11.118489 2.9114327 31
-3.1858342 11.164557 2.9230008 255
-2.9497857 11.155197 2.9168439 255
17.273699 11.124298 2.9660344 12
17.347382 11.140054 2.9117 20
-4.8429651 11.288418 2.9711928 255
-4.7452998 11.231261 2.9549415 255
-4.5686703 11.261301 2.9600019 255
-3.6405501 11.283493 2.9570715 255
-3.5679748 11.277504 2.9548604 255
-2.9954834 11.20125 2.9289503 177
-2.8715866 11.249352 2.9411409 18
17.334042 11.210987 2.9611645 6.5
-12.582285 11.383286 2.9089727 1
-5.7599711 11.349393 2.9972277 255
-3.6302493 11.360001 2.9772143 255
-3.0775948 11.335169 2.9653144 255
-2.9289515 11.332683 2.9632468 56
-2.8543994 11.318353 2.9585059 127
17.535545 11.389727 2.9785075 108
-12.589915 11.449759 2.9261837 1
-5.4254522 11.487331 2.9206614 1
-3.1094933 11.468832 2.9063876 255
-2.982954 11.41373 2.9858291 133
19.493437 11.469371 2.9919472 9
-5.5397396 11.561536 2.9400425 223
-4.1441665 11.509031 2.9185624 255
-2.8642602 11.538702 2.9248414 255
-12.154929 11.631546 2.9437938 1
-12.041364 11.697792 2.9915409 1
-10.819459 11.632268 2.9740193 1
-5.5478897 11.661908 2.9659464 255
-3.049088 11.642659 2.9517231 33.5
-2.9599204 11.635712 2.9499595 21
-10.865995 11.729827 2.9395118 1
-5.2265358 11.762133 2.9562998 4
-3.1434534 11.727912 2.9733999 190
-3.0679617 11.716614 2.9708071 49
-2.5533063 11.782484 2.9855652 255
-10.885038 11.814006 2.9614985 1
-10.768544 11.817215 2.9615102 1
-10.487115 11.826882 2.9636075 1
-7.8468981 11.848514 2.9601986 0.5
-5.6120725 11.844464 2.9457018 255
-2.5962515 11.815585 2.9947939 255
-5.3351536 11.949338 2.9700792 255
-2.6140373 11.951303 2.9551022 255
-2.3319492 11.964509 2.9578643 255
17.550499 11.960632 2.9199407 131
17.712164 11.932594 2.9091876 219
-2.9313531 12.078002 2.9879217 29
-2.893914 12.071692 2.9867463 50
-2.5157516 12.075019 2.9867194 255
-2.4663081 12.094502 2.9920843 255
-2.3075242 12.0428 2.9782193 255
-2.1249571 12.045364 2.9774938 255
17.496576 12.056684 2.9461877 72
17.554771 12.030367 2.9384527 127
17.718464 12.003793 2.930114 143
-2.8214476 12.188901 2.9173203 255
-2.6821668 12.100657 2.9933252 255
-2.5797939 12.124196 2.998697 255
-2.4313011 12.101295 2.993273 255
17.475607 12.144067 2.9486752 74
17.830317 12.129542 2.9000297 255
-10.830585 12.254114 2.9183302 201
-10.692359 12.234713 2.9136267 4
-2.7701828 12.284574 2.9406059 63
-1.9032991 12.227198 2.9266098 255
16.861275 12.252546 2.9420633 51
17.105337 12.295292 2.9493964 255
17.466545 12.225104 2.9593754 132
17.691423 12.22343 2.9273775 255
-10.766594 12.386704 2.9516122 13
-2.6387103 12.348269 2.9565802 255
-2.5742848 12.390791 2.9671957 255
-2.1043954 12.370563 2.9621439 255
-1.9559039 12.34454 2.9552703 255
-1.0724338 12.344047 2.9571357 29
16.86631 12.358301 2.968101 87.5
17.01981 12.300991 2.9523427 255
17.60442 12.374509 2.9652929 255
-6.2217021 12.434555 2.9413986 10.5
-6.1839228 12.445782 2.9433951 1
-2.7701368 12.44054 2.9782834 255
-2.0315652 12.441836 2.9005053 255
-1.896472 12.427152 2.9752514 255
-1.5664347 12.454453 2.903028 0
-1.1282527 12.452748 2.9570096 28.333334
-1.0210638 12.45353 2.9566109 12.333333
16.882496 12.473921 2.9984117 135
17.523252 12.45288 2.9855976 255
17.631512 12.461006 2.9881606 255
-10.032125 12.523513 2.9900756 0
-5.7177205 12.573954 2.9397535 238
-1.9724411 12.53456 2.9223511 255
-1.546576 12.520399 2.9191525 1
-1.1542399 12.555994 2.9265041 9
17.497522 12.50307 2.9994016 53
-12.314037 12.624493 2.9353876 1
-11.951499 12.602711 2.9975045 1
-10.908834 12.672996 2.9534793 8
-10.741637 12.68472 2.9570115 0
-10.1116 12.607707 2.9443591 0
-5.791728 12.642855 2.9572062 255
-1.5260623 12.664792 2.9536541 141
-1.4517914 12.637263 2.9468715 7.3333335
-0.98074263 12.613891 2.9405148 35
-0.83035636 12.668561 2.9523931 25.5
-0.77598649 12.660766 2.9510217 4
0.54147446 12.67159 2.9504452 255
-11.055264 12.77291 2.9768879 2
-10.857153 12.716463 2.9641511 0
-10.76516 12.769619 2.9781425 0
-10.159864 12.770851 2.984982 1.5
-1.389128 12.714063 2.9653833 0
-0.88187802 12.722397 2.965935 52
0.65566522 12.776096 2.9751549 166
0.79124129 12.72994 2.9634793 255
0.8293066 12.766522 2.9726918 255
-14.13657 12.827528 2.967912 1
-0.91919559 12.879618 2.9093387 5
-0.88070649 12.84539 2.9021866 10
0.64839685 12.841625 2.9468613 181.5
0.75947046 12.85181 2.9353378 255
0.88255048 12.839591 2.9047852 255
16.406876 12.898076 2.9081507 59
16.658001 12.882648 2.9007254 255
-0.77730507 12.96407 2.9291821 3
0.53104049 12.98278 2.9358661 255
16.244167 12.976161 2.9316001 13
16.776407 12.902134 2.9030979 255
-0.96425778 13.014073 2.9406674 255
0.22084585 13.053369 2.9526815 255
16.238705 13.0453 2.9472964 32
16.408995 13.03809 2.9433098 34
-0.19673596 13.164918 2.9769535 255
0.27727678 13.136372 2.9720469 255
0.33251292 13.114351 2.9672756 255
0.44400173 13.15642 2.9763925 255
0.50163305 13.137297 2.972465 255
0.96060145 13.158432 2.9777646 107.5
1.0169482 13.161073 2.9778941 255
16.090914 13.13308 2.9714091 4
16.125717 13.111183 2.9325402 3
16.253527 13.126729 2.9686141 5
-11.82042 13.264125 2.9259367 0
-11.746724 13.249468 2.9245291 0
-0.3074142 13.223698 2.9909804 255
-0.26576632 13.256489 2.9070489 255
-0.15688285 13.225226 2.9451427 255
0.35912597 13.298768 2.9143007 255
1.0571896 13.201898 2.9879725 255
16.158253 13.22425 2.9279742 11
-13.271612 13.371726 2.9302576 56
-0.19262463 13.318755 2.9206786 255
-0.0076897517 13.312835 2.9190431 12
0.050780538 13.352991 2.9280386 255
0.43340981 13.328256 2.921382 255
1.1423464 13.326076 2.9192536 255
-13.621202 13.43129 2.938437 255
-0.41902035 13.41117 2.9424858 255
-0.045348026 13.459152 2.9517539 255
0.0975582 13.471067 2.9544797 255
0.40039873 13.436728 2.9453495 45
1.6473967 13.474348 2.9527712 6
-13.379532 13.546595 2.9366195 46
-1.9804025 13.543793 2.9723856 255
0.48272854 13.595122 2.9813004 255
1.5291088 13.579809 2.9756885 14
1.6597455 13.546784 2.9676859 18
-1.951564 13.611807 2.9877503 255
-0.31084743 13.609379 2.9861002 255
1.5717024 13.688326 2.9117138 17
-13.812 13.771954 2.9491105 0
1.5185225 13.750586 2.9251537 13.5
1.7651985 13.734738 2.9211233 13
1.8111655 13.795469 2.9339728 11
-13.954026 13.841413 2.9624817 0
1.4691199 13.814662 2.9391313 10
1.8630375 13.889964 2.9541605 2
0.041631855 13.952572 2.9662623 191
1.2854587 13.938026 2.9644835 13
1.3461068 13.955752 2.9688168 36
1.4261127 13.962831 2.9706316 38
0.081209935 14.06235 2.9900792 255
-2.24225 14.18483 2.9204106 115
-0.6594106 14.114209 2.9989295 75
17.026192 14.114214 2.9158967 255
-12.271539 14.256749 2.9078958 255
-12.197031 14.24764 2.9065554 255
0.083581418 14.236407 2.9289455 255
-0.30687785 14.343177 2.9534152 78
0.24584736 14.408267 2.9653747 15
17.354387 14.453633 2.9899552 255
-12.131125 14.549278 2.9026167 6
-0.10923236 14.551585 2.9965341 13
-13.481448 14.674166 2.9013224 1
-12.271372 14.639919 2.9181077 5
-11.79436 14.603738 2.920115 193
-0.039487552 14.653955 2.916492 35
16.940411 14.682942 2.9783621 183
17.527294 14.647062 2.9574878 255
-12.19631 14.706466 2.9354117 255
-11.943228 14.703864 2.9398239 255
0.14419281 14.791743 2.9445796 2
17.156958 14.786947 2.9986351 141
-13.552618 14.873011 2.9430578 5.5
-11.377453 14.890153 2.9898925 57
-11.298785 14.868754 2.9866514 42
0.10427342 14.843539 2.9550192 9
17.464806 14.822507 2.9996643 207
23.866169 14.890828 2.9095438 6
-13.451385 14.921083 2.9569874 5.5
-13.380604 14.960779 2.9661608 5
-0.29977769 14.931811 2.9719758 3
23.797979 14.93102 2.9220748 15
-0.3432413 15.009297 2.9878764 0
-0.25717184 15.07179 2.9006524 0
-25.715656 15.134459 2.9908679 3
-25.547848 15.120809 2.9927621 2
-0.63729429 15.183781 2.9217966 40
-0.54922014 15.12157 2.9099429 32.333332
-11.266919 15.27916 2.9041348 11
-11.198768 15.275766 2.9048738 13
-0.89196676 15.247649 2.9337654 0
-0.46990928 15.226455 2.930476 81
16.979176 15.293667 2.9007173 57
-1.4067708 15.398027 2.9653282 6
-0.9633559 15.363742 2.9573069 0
-0.83674431 15.377068 2.9599895 1.5
-0.43358663 15.394423 2.9631937 5
16.906036 15.313383 2.9065514 35
24.972845 15.382082 2.9191508 51
25.063519 15.358296 2.9485331 8
-1.3715438 15.494901 2.9835491 0
-0.75633448 15.492851 2.9826064 1.5
-0.69101971 15.468759 2.9780626 9
15.210257 15.457143 2.986551 3
15.343782 15.489154 2.9527316 12
15.417162 15.48264 2.9496281 7.5
15.537953 15.497256 2.9112625 1
16.92572 15.411314 2.9281695 31
-12.685527 15.581376 2.9297633 255
-11.500082 15.507535 2.9467692 255
15.298542 15.58766 2.9377654 1
15.360332 15.563578 2.930649 9
17.010857 15.56966 2.9615326 16
16.826527 15.646071 2.9079108 22
16.973633 15.656985 2.9825571 19
-12.883364 15.740562 2.9586713 178
16.789417 15.733849 2.927866 12
16.883974 15.700953 2.9947762 21
16.861517 15.886763 2.959559 1
-10.955149 15.968034 2.9768553 20
16.893024 15.999344 2.9839604 1
16.79561 16.062046 2.9998276 1
16.845276 16.040342 2.9944916 1
-16.145578 16.295773 2.9043217 0
26.413208 17.069376 2.9709985 4
-3.9001286 17.178549 2.9320161 2
-3.8476853 17.163761 2.9302177 4
-3.7939281 17.140099 2.9260447 4
26.428461 17.13945 2.9067237 4
-3.7575688 17.203032 2.9386475 0
-0.0085705211 17.823753 2.9558601 64
-0.056947492 17.94445 2.9762821 20
-0.32656795 18.019205 2.9894104 137
0.046886947 18.057871 2.9954538 134
7.8539829 18.186087 2.9148297 10
7.9036641 18.157068 2.9099095 62
7.5814862 18.222883 2.9291165 18
7.6614637 18.20252 2.9241521 34.5
-0.098835625 18.353626 2.9221816 1
-0.16479078 18.442108 2.9357204 1.5
8.0712967 18.411232 2.9489279 161
24.809391 18.488951 2.9761574 10
0.074878678 18.547438 2.9536362 9.5
24.756199 18.525248 2.9456165 21.5
0.15069693 18.656809 2.971467 0
6.1269031 18.660309 2.9271262 21
7.3540244 18.640459 2.9039042 255
24.765116 18.611803 2.9198163 26
6.0899734 18.723787 2.9384241 173
7.325264 18.714935 2.916538 255
24.822708 18.751207 2.9474161 38
5.3561897 18.834976 2.9681973 53
6.0225801 18.861164 2.9629622 255
9.1808901 18.893116 2.9025712 0
9.2763567 18.800125 2.9870825 5
5.4968724 18.975422 2.9892225 255
5.657855 18.946991 2.9842856 255
5.7460699 18.96262 2.9846499 255
5.8380761 18.989714 2.9868894 132
8.7553692 18.948547 2.9227343 61
9.1540699 18.962936 2.9159687 0
24.998762 18.989882 2.993113 17
5.3488545 19.003351 2.9968076 66
5.5605111 19.00351 2.9941776 255
5.6164169 19.007982 2.993413 255
7.3920026 19.036032 2.9683948 209
8.8959341 19.068184 2.9405179 21
8.9780922 19.052757 2.9352417 10
9.1453915 19.073788 2.9356997 0
9.0940723 19.10317 2.9404678 0
4.6383476 19.290632 2.9026511 162
8.8120241 19.271509 2.9762855 17
4.7591591 19.330559 2.9068716 255
4.8358326 19.416597 2.9181225 241
5.0156102 19.458925 2.9228997 255
4.637754 19.518995 2.9397149 88
5.2693305 19.565186 2.9338427 255
6.6777134 19.682575 2.9261792 0
22.239363 19.686745 2.9718115 1
4.6406174 19.716206 2.9704778 68
6.745791 19.714872 2.9296329 0
7.0146971 19.798843 2.9372482 0
22.222473 19.774809 2.9909136 1
4.5348854 19.874182 2.9969292 26.5
4.6201344 19.860067 2.9947298 30
5.1806984 19.88142 2.9857123 66
5.2380476 19.882023 2.9859338 39
7.0772977 19.848114 2.9427235 0
22.127392 19.845913 2.9193404 1
22.213211 19.822979 2.9097698 1
5.3031564 19.911421 2.9885626 65
-28.525475 20.247746 2.9448397 2
-28.442421 20.357666 2.9749629 18
-28.313053 20.438309 2.9057555 10
-28.321114 20.556004 2.9324653 4
11.662453 20.514709 2.9087055 14
11.748095 20.54108 2.9099884 6
11.901082 20.546543 2.9062507 255
11.473403 20.688124 2.9437814 1
11.865642 20.617599 2.9186816 255
11.3915 20.796011 2.96469 1
11.556478 20.710993 2.9444945 7
11.289227 20.875141 2.9812186 0
11.359633 20.866125 2.9775438 1
11.261953 20.925503 2.9921966 2
-3.7594011 21.021769 2.9160151 5.5
10.869927 21.151957 2.9317739 79
-3.8902102 21.269053 2.9499726 0
-32.162388 21.661697 2.9676483 1
-32.013832 21.695992 2.9819667 1
7.2403955 21.619259 2.9162812 8
11.034697 21.610046 2.9995573 0
7.3321652 21.70896 2.9267528 12
7.4325647 21.720055 2.9267263 103.5
13.084558 21.849421 2.9648356 6
13.154453 21.837393 2.9604332 3
24.314617 21.840981 2.9050093 1
24.465069 21.861706 2.900528 1
24.262321 21.960861 2.9325278 3
7.8894029 22.0331 2.960808 6
7.9602165 22.050398 2.9614196 5
8.0614977 22.056517 2.9597595 2
24.208929 22.088694 2.9605663 1
7.6651249 22.117943 2.9797642 26
8.2121668 22.195026 2.973922 52
24.178341 22.171661 2.9795265 8
7.7776933 22.242123 2.9951825 177
7.8925118 22.236708 2.990289 0
24.19817 22.373434 2.9105954 8
24.137222 22.433458 2.9261961 32
24.021675 22.675924 2.9782722 138
24.195063 22.607779 2.9567375 29
24.175468 22.707153 2.9744608 52
14.367501 23.278919 2.9104087 147
14.396071 23.458416 2.9366741 255
24.352484 24.194983 2.9243717 8
24.237526 24.268818 2.9434037 9.5
24.14752 24.362844 2.9652529 12
-28.574768 24.497709 2.9142396 2
23.959148 24.429565 2.9875927 16
24.128141 24.474539 2.9876761 7
-28.540787 24.592449 2.935276 9
-28.403793 24.606819 2.9450014 22
-28.248558 24.660515 2.965636 16
-27.914711 24.680275 2.9914932 7
24.010326 24.65901 2.9121068 0
-28.151356 24.764454 2.9924409 13
-27.725103 24.782457 2.9135644 2
23.958305 24.728809 2.9266217 6
24.223839 24.751509 2.9172704 0
-28.032837 24.803831 2.9005179 13
-27.941193 24.846516 2.9117301 3
-27.636143 24.827354 2.9286153 42
23.97891 24.883566 2.9542148 16
-27.591742 24.91221 2.9448953 1
-27.64542 25.095856 2.9760952 5
-19.956932 25.002964 2.9610789 195
23.79306 25.073395 2.9974539 26
23.903688 25.059496 2.987545 22
24.011799 25.047285 2.9799056 4
-19.98575 25.172613 2.9877486 4
-19.741842 25.112186 2.9906015 3
-19.914583 25.212006 2.9958272 3
-30.339373 25.627964 2.9092577 1
-30.382591 25.794651 2.9389963 1
-30.411276 25.954914 2.9677398 1
6.0516696 26.467566 2.928308 0
5.9887962 26.53253 2.9363892 2
5.9457898 26.659269 2.9516013 0
-28.952456 27.343115 2.9365621 2
-28.850529 27.38345 2.9522867 4
-28.789244 27.467489 2.9715195 15
-28.649626 27.746058 2.9015779 20
5.2069225 27.760811 2.9306014 0
5.5759778 27.715631 2.9196548 255
5.2915096 27.813429 2.9349873 0
5.3717952 27.818382 2.9343691 10
5.4549742 27.860744 2.9376838 0
5.55197 27.971146 2.9483294 0
-28.797499 28.028795 2.9395649 23
-28.850431 28.219854 2.9717605 8
-28.858994 28.380394 2.9962816 2
-23.289522 28.63982 2.9050553 0
-23.253685 28.747665 2.9242556 1
-23.119802 28.727345 2.9268427 13
-23.687622 28.822598 2.9077857 0
-23.584906 28.844135 2.9183345 0
21.351797 28.961449 2.9961605 3
21.409184 28.917021 2.9855845 8
21.783672 28.949167 2.9681747 12
21.891649 28.944279 2.959229 1
21.654583 29.096176 2.9960914 33
21.722794 29.024574 2.9841802 30
-2.7090285 29.187403 2.9242136 35
-5.1035237 29.261614 2.9004402 17
-3.2615693 29.299242 2.9326799 255
-2.865998 29.230169 2.9272149 255
-2.6436884 29.298088 2.9376717 37
-5.2675328 29.30875 2.9021571 10
-5.1742635 29.31768 2.9042745 34
-3.3496954 29.372194 2.9381707 255
-3.1466756 29.325308 2.9369011 255
-3.0301034 29.308622 2.9368258 147
-2.960819 29.383202 2.9436543 255
21.365297 29.395744 2.9175968 0
-4.989377 29.423559 2.9203038 48
-3.4574294 29.782911 2.980792 255
-4.9820776 29.843712 2.9615352 62
-3.7847867 29.855146 2.9832175 113
-3.6554158 29.816645 2.980696 70.5
-3.557236 29.841581 2.9849672 103
-3.881078 29.991053 2.9951503 121
-4.9288259 30.003532 2.9793587 255
-6.1030269 30.288677 2.9895132 255
-6.190073 30.314468 2.9907155 255
-10.34304 31.163584 2.9685996 11
-10.453872 31.216454 2.9700806 255
5.4831347 31.507446 2.9198146 255
5.5748272 31.532082 2.9204502 255
34.343498 31.522926 2.9298017 1
5.4348865 31.662016 2.9363515 255
5.3851771 31.756359 2.9442449 255
34.374573 31.714933 2.9576654 2
-32.012722 31.936638 2.9787331 1
5.2346382 31.960215 2.9669485 255
5.3159046 31.936993 2.9629087 255
34.451626 31.945501 2.9940374 1
5.1639824 32.049576 2.977278 34
5.0913401 32.128956 2.9866896 133
6.2429962 32.359196 2.9883416 0
6.3281317 32.365776 2.9872468 0
-15.506047 32.557243 2.9147313 0
-32.502323 32.742794 2.9379871 1
-32.614349 33.019978 2.9737799 1
-53.538315 33.289711 2.9166863 6
-53.167782 33.243633 2.9369094 4
-53.808826 34.053993 2.9160135 3
-53.541115 34.064156 2.9413044 3
-29.025425 34.178719 2.9825854 8
-53.566025 34.268017 2.9841654 3
-29.203707 34.215153 2.9749508 49
-8.6803493 34.767899 2.9262135 12
-8.5778465 34.726028 2.9276862 32
-8.4912691 34.762402 2.9323709 35
33.032562 34.88443 2.973752 1
33.180424 34.860157 2.9614673 1
-8.4336491 34.914799 2.9470673 20
32.907036 34.932781 2.9890313 5
-8.4555149 35.332024 2.9849617 2
-0.9207117 36.255043 2.9295754 175
-0.82694417 36.267273 2.9303973 222
-0.72879261 36.411137 2.9456029 37
-0.63919657 36.430286 2.9470425 19
-0.45325586 36.672279 2.9667857 2
-0.54910874 36.723297 2.9711044 5
-11.427509 39.479568 2.9718258 35
-11.568763 39.598167 2.9790838 60
-11.862556 39.852642 2.9911697 1
-11.755612 39.871037 2.9942455 0
1.1614414 42.663788 2.9029791 255
1.3771234 42.614948 2.9000356 38
1.9248215 42.698822 2.9032049 59
2.0231915 42.694271 2.9032049 59
2.1298714 42.691582 2.903378 28
1.712352 42.700424 2.9026861 33
1.8349612 42.71027 2.9037237 19
2.466382 42.771118 2.906009 13
2.251122 42.887936 2.9132612 255
2.3713398 42.971378 2.9194775 106
1.0678985 43.189846 2.9434888 255
0.96203285 43.421864 2.9584408 255
4.9618478 43.427242 2.9281645 58
4.4281168 43.601994 2.9488006 16
4.547914 43.615025 2.9463034 6
4.6758056 43.711758 2.9538276 2
5.1055288 43.716949 2.9489684 22
5.2300949 43.797962 2.9512141 95
-0.042130705 43.888905 2.9901717 0
-0.16022354 43.92355 2.992599 0
5.6086249 44.064342 2.9638014 255
5.7449212 44.253025 2.9777255 255
5.984375 44.329792 2.9807334 255
6.2326703 44.406834 2.9795854 182
-5.7618132 11.431939 3.0189917 255
-3.8165247 11.491001 3.0134566 174
-3.2436819 11.492713 3.009218 255
17.284704 11.487624 3.0048943 22
17.327122 11.436604 3.0323846 47.333332
17.600225 11.463984 3.06022 192
-5.5496998 11.52846 3.0427251 73.5
-3.8776586 11.563189 3.03321 72
17.653736 11.547868 3.0518756 255
-5.6538448 11.621033 3.0680013 255
-2.9152021 11.696797 3.0595577 33
-5.7380304 11.710732 3.0924089 255
-5.2281256 11.755408 3.0983953 2
17.591629 11.75976 3.0771973 21
17.91683 11.772225 3.0803246 18
-6.069488 11.884866 3.0246122 7
-5.3325901 11.878251 3.0197179 255
-5.2260842 11.814047 3.0026321 2
-10.987093 11.991805 3.0071359 1
-10.607627 11.97656 3.0641024 1
-10.553249 11.980061 3.0655684 1
-7.904778 11.957012 3.0510976 0
-2.8815808 11.965406 3.0347085 101
-2.5532389 11.943072 3.0276587 255
-2.4233541 11.996023 3.0402822 255
-2.3165598 11.971479 3.0339451 255
-10.959203 12.039959 3.0800636 1
-10.875954 12.078615 3.0894141 1
-10.619403 12.038933 3.0186663 2
-10.592907 12.076645 3.0287437 5
-2.9451602 12.085097 3.0651782 27
-2.684418 12.04496 3.0535343 255
-2.3779891 12.009577 3.0432768 255
-2.2880604 12.003802 3.0418756 255
-2.6172888 12.133835 3.0016868 255
-2.5420189 12.15062 3.0802374 255
-2.4398606 12.128935 3.0371985 255
-2.1712782 12.147267 3.0785267 255
16.969919 12.299042 3.0172782 174
17.000193 12.254522 3.0048275 255
-2.3419051 12.364719 3.059263 255
-2.0238767 12.3948 3.0649536 255
-1.1328229 12.388595 3.0581889 31
16.920464 12.355986 3.0338564 98.5
17.164097 12.304987 3.0161042 255
17.347469 12.329367 3.02106 192.5
17.450109 12.301273 3.0128763 105
-6.2249842 12.413206 3.0917907 4
-2.8375401 12.46455 3.0851495 255
-2.2548418 12.468782 3.0845401 255
-2.1499631 12.485567 3.0872002 255
-2.0629084 12.415718 3.0703723 255
-1.9972432 12.457797 3.0806358 255
-1.1385641 12.431748 3.0697143 38.5
-1.0670819 12.423432 3.0666735 26
16.821642 12.49912 3.0058277 95
16.90629 12.443824 3.0573883 255
-6.1614571 12.546564 3.0024028 255
-1.0375857 12.5035 3.0873125 8
-0.94597834 12.562766 3.04058 31.333334
-0.86116552 12.572312 3.0354662 10.75
16.837976 12.574147 3.0245912 255
16.92511 12.56205 3.0866072 255
-10.850101 12.673676 3.021307 1
-6.2456045 12.628589 3.0223727 122
-5.7877693 12.665345 3.033011 117
-1.2450413 12.658188 3.0332057 10
-0.96123469 12.630449 3.0269141 68
-0.78255451 12.669032 3.0358613 10
0.61191964 12.611636 3.0247507 255
16.905954 12.683157 3.0524926 136
-11.011283 12.729568 3.035089 5
-10.84724 12.742082 3.0388718 1
-10.126354 12.713759 3.0359278 0
-5.8847604 12.782945 3.06142 128
-5.7527771 12.731047 3.0479989 161.5
-2.0644262 12.797609 3.0658219 255
-1.5118867 12.743308 3.0529327 212
-1.4415828 12.792425 3.065418 9
-1.2534268 12.736649 3.0523794 15.5
-0.75173986 12.748465 3.0560229 10
0.77561915 12.786568 3.0682554 255
16.867144 12.727692 3.0643184 255
-6.0334101 12.88306 3.0150578 255
-5.975203 12.855326 3.0086036 255
-0.68767083 12.890484 3.0910017 4
0.68927979 12.850876 3.0840065 255
0.8357982 12.847286 3.0839522 255
16.485489 12.856038 3.0989301 58
16.669411 12.858213 3.0982749 50
16.738506 12.839767 3.0944235 127
16.823599 12.833216 3.0914371 255
16.903835 12.823316 3.0876465 255
-13.424057 12.993156 3.048162 10
-12.200511 12.962021 3.0518486 1
-12.14472 12.977535 3.0889735 2.5
-12.075324 12.925888 3.0109198 1
-11.998492 12.983559 3.0249443 3
-11.818553 12.927975 3.0122349 1
-11.471063 12.907831 3.0758593 19
-10.93768 12.918511 3.0812747 1
-1.4939259 12.921247 3.0965643 255
-0.97427177 12.999878 3.0315247 255
-0.31712401 12.954775 3.019907 0
0.18649803 12.981937 3.0244286 255
0.59102893 12.98108 3.0242345 255
0.64216065 12.913638 3.0531225 134
0.87318307 12.900374 3.0036902 255
-14.25911 13.006248 3.010797 1
-13.411251 13.042089 3.0282683 28
-12.032528 13.09087 3.051506 12
0.15129085 13.072106 3.0470343 187
0.51972926 13.020395 3.0341363 255
0.74987006 13.058695 3.041893 240
-13.651111 13.135408 3.0486572 102
-13.452698 13.188917 3.0639949 115.5
-13.349456 13.193983 3.0663185 10
-13.233601 13.176726 3.0626161 1.5
-0.28427142 13.108819 3.0562692 255
0.1153074 13.130856 3.0608866 255
0.2265548 13.129705 3.0596223 255
0.47002652 13.157366 3.066144 255
0.96821541 13.174132 3.0698781 90
-13.214025 13.288192 3.0910575 2
-0.23586747 13.298287 3.0078127 255
-0.040729284 13.244829 3.0419557 136.5
0.26486894 13.211711 3.0792387 255
0.38479257 13.256056 3.0437779 255
0.41486093 13.238332 3.084887 255
0.9353835 13.232603 3.0831158 191
1.027508 13.20653 3.0772362 222.5
-13.988913 13.31843 3.0912824 1
-0.42382425 13.349924 3.0194316 255
-0.3498936 13.337479 3.0160666 255
-0.056676723 13.380368 3.0276163 146
0.037974201 13.353622 3.0214419 169
1.1093694 13.383728 3.0292325 255
0.17124605 13.452475 3.0444555 255
1.1508889 13.429132 3.040426 255
-0.46969181 13.597037 3.0766373 255
0.095258959 13.555558 3.0680306 255
0.13200523 13.545497 3.0657854 255
1.201104 13.540006 3.0654223 255
1.623872 13.563573 3.0726383 14
-2.0142231 13.68293 3.0906196 255
-1.845933 13.692598 3.004997 47
-0.39597324 13.640854 3.0861716 255
1.5539899 13.618957 3.0847464 9
1.2785728 13.794461 3.0236502 55.5
1.3565581 13.783618 3.0215034 73.5
1.4703143 13.749162 3.0136914 18
1.7711204 13.799065 3.0234077 7
-6.4322615 13.853748 3.0391178 17.5
-1.9048404 13.837598 3.0371785 27
1.2252417 13.838462 3.0329986 90
1.4212453 13.832756 3.0316968 31
1.8289485 13.848282 3.035162 3
-1.841167 13.96134 3.0652926 18
-1.7652047 13.968521 3.0661068 0
-0.55419284 13.981059 3.0698864 229.66667
-11.590859 14.083143 3.0529346 0
-1.7287189 14.004755 3.0745006 0
-13.859096 14.127746 3.0320532 4
-11.995186 14.19671 3.0751324 5
-11.857774 14.111086 3.0564857 0
-0.085501835 14.100645 3.0951362 255
-13.902468 14.229245 3.0539646 2
-12.133842 14.202101 3.074326 3
-12.066502 14.206091 3.0748882 16
-11.753879 14.202968 3.0772381 255
-0.62377524 14.20144 3.017421 35
-12.974924 14.312675 3.0888267 252
-0.70898777 14.317614 3.0419295 255
0.12242105 14.409011 3.0652344 255
-1.4468439 14.581882 3.0029676 9
-0.2711679 14.576376 3.0021808 22
16.892559 14.598922 3.0349948 168
17.548565 14.690611 3.041682 97
-12.315004 14.763834 3.020617 158
-12.156644 14.734656 3.0178053 198
-1.4195158 14.709664 3.0304494 14
-0.069655195 14.772036 3.0427332 10
16.959112 14.757758 3.0325894 209
17.097925 14.700792 3.0534849 105
17.282122 14.781208 3.0688288 108
17.378983 14.747267 3.0591991 100
17.522535 14.746321 3.0550339 71
-13.675727 14.894063 3.0183914 3
-11.345921 14.898289 3.0691514 120
-0.52559239 14.892568 3.0699394 11
-0.37911019 14.867649 3.0637794 2.5
16.955868 14.852497 3.0922263 134.5
17.296101 14.828741 3.0053799 137
17.429924 14.865099 3.011004 56
17.628166 14.873838 3.0071712 221
-25.622391 14.983698 3.0238736 3
-13.626029 14.917495 3.0258503 1
-13.540609 14.910157 3.0241771 17
-13.49425 14.936844 3.0323431 180
-13.39026 14.980253 3.0444257 10
16.876732 14.938288 3.0409477 133
16.926268 14.902958 3.0318098 70
17.049868 14.933343 3.036165 133
17.761501 14.921021 3.0156825 255
-13.489156 15.009315 3.0500016 37
0.023237977 15.093794 3.0057261 14
16.685921 15.08704 3.0790968 255
16.955671 15.089651 3.073957 255
-25.710558 15.124814 3.0565279 3
-25.45508 15.151911 3.0034606 2
-25.314184 15.157163 3.0772212 3
-12.401296 15.113566 3.0975623 6
-0.64325809 15.186359 3.0227149 15
-0.55679041 15.144691 3.0141003 11.333333
-0.47255921 15.155574 3.0167277 21
-25.386883 15.203963 3.0202827 3
-12.560271 15.296914 3.0565648 0
-11.232037 15.200295 3.0607829 6
-11.171373 15.203701 3.0627542 3
-0.90079957 15.264554 3.0381398 2
0.064627752 15.265181 3.0405247 0
-25.522692 15.375282 3.0588841 2
-11.448486 15.362865 3.0922225 255
-11.186481 15.310417 3.0859425 12
-0.86223471 15.320835 3.0490508 2
-12.720147 15.406746 3.0779927 40
-0.73983461 15.481185 3.0832782 0
-0.69757253 15.470888 3.080796 1
24.859295 15.420481 3.0107248 35
-15.930426 15.772777 3.0893033 132
16.898041 15.859964 3.0308795 8
16.938391 15.81536 3.0194135 12
14.828916 15.916123 3.0217125 30
14.937615 15.93111 3.0611084 30.5
15.296746 15.990533 3.027072 109
16.861204 15.955444 3.0530596 3
14.83842 16.010387 3.0409555 86
15.082737 16.017759 3.0373287 30
15.171192 16.031191 3.0385826 68
16.813652 16.03396 3.0716214 1
15.402241 16.165894 3.0614364 104
15.55927 16.189838 3.0636029 6
-11.056793 16.201694 3.0219598 113
14.946881 16.211477 3.0831378 3
15.763906 16.314524 3.0846756 1
-0.35336027 17.935581 3.0961602 10
7.8494949 17.976046 3.0429802 0
7.8381829 18.082661 3.0616007 0
7.580708 18.161942 3.0804009 6
7.7615991 18.173471 3.0777974 0
7.8048682 18.139444 3.0716503 0
-0.10886731 18.259739 3.0296292 1
7.6605644 18.215109 3.087297 8
7.7171216 18.204845 3.0854592 0
0.087418519 18.553194 3.0792253 7
0.1317537 18.65646 3.0967298 3
7.367383 18.65954 3.0116405 158
7.4462461 18.638594 3.0062099 70
7.5334702 18.643276 3.0049131 26
24.732304 18.628075 3.0113101 16
5.9717741 18.789865 3.0627735 255
7.3511925 18.771502 3.0306351 255
5.911943 18.86462 3.0751712 255
6.0607634 18.806906 3.0637169 255
6.1483393 18.811846 3.0628836 255
8.6986399 18.870094 3.0131598 62
8.7445974 18.83843 3.0057087 80
9.2533026 18.890446 3.0035667 0
5.6640968 18.961231 3.0958169 60
5.8956604 18.988367 3.0969908 255
9.0962954 18.938774 3.0164852 0
9.1731396 18.979118 3.0205379 0
9.2146959 18.93486 3.0132391 0
9.391573 18.909693 3.0025482 0
9.4738226 18.947077 3.0064785 0
23.427637 18.949184 3.0537846 59
23.512718 18.910873 3.0404985 21
23.643538 18.919786 3.0369225 3
24.970348 18.911652 3.0653136 14
5.3174286 19.08852 3.0120845 10
23.938934 19.054375 3.054215 3
24.0166 19.010885 3.042789 8
24.155577 19.037941 3.040592 3
24.941376 19.047741 3.0072193 11
25.027952 19.056795 3.0937953 58
5.9604034 19.113941 3.0067053 255
6.0581365 19.150072 3.0105581 255
9.0514297 19.158199 3.0551243 0
24.927885 19.136166 3.0296986 20
4.9432445 19.246117 3.0432403 249
6.5645456 19.293421 3.0253403 84
6.6249228 19.294294 3.0244093 64
4.630352 19.321779 3.0575695 78
4.7180314 19.346699 3.0607092 117
4.8877583 19.35413 3.0603807 251
4.8068743 19.48288 3.0827575 48
4.5940824 19.517656 3.0900772 143
4.8810782 19.549057 3.0916374 103
6.7735648 19.585894 3.071341 115
7.5480113 19.585308 3.0556908 3
7.3435187 19.689421 3.075887 0
7.4936743 19.766306 3.0861955 3
7.539238 19.720488 3.0780911 1
4.3425889 19.897295 3.0031459 6
4.4285793 19.891567 3.0010848 9.5
7.4489465 19.808992 3.0939419 0
4.3243876 20.072966 3.0303867 0
11.874085 20.179625 3.04796 4
11.94201 20.175087 3.0451443 5
12.044477 20.219374 3.0479021 3
11.879685 20.316694 3.0708473 255
-28.35914 20.46327 3.0015092 15
11.880064 20.437796 3.0918236 255
-27.825329 20.968311 3.0475147 15
-27.714142 20.992258 3.0577812 1
-3.6524796 20.92787 3.0276961 2
11.231471 20.974991 3.0005872 12
-3.7538295 21.013939 3.0393534 5
11.099567 21.028791 3.0149906 0
11.170793 21.031336 3.0126095 11
-27.826925 21.187151 3.0932949 1
10.896862 21.187254 3.0465834 255
10.995049 21.232418 3.0506692 255
24.699224 21.271078 3.0875854 1
-32.100754 21.579924 3.0498006 2
-31.983349 21.626099 3.0664461 2
11.409889 21.891787 3.0333853 0
11.589329 22.128775 3.0628288 2
-34.315338 22.344048 3.0972793 3
-33.48674 22.310884 3.0348899 1
7.8850369 22.386009 3.0127871 144
24.21126 22.317638 3.0068517 8
-34.295246 22.47187 3.026135 2
24.200062 22.418316 3.0284791 47
23.878181 22.583956 3.0775237 171
24.137371 22.536541 3.0556386 68
24.02441 22.608818 3.0733039 255
24.026787 22.798819 3.0024064 61
23.922096 22.812298 3.0081313 77
23.931515 22.944429 3.0332811 16
16.123102 23.199648 3.0625589 0
16.248415 23.182123 3.055131 0.5
16.564791 23.179512 3.0428264 0
16.660362 23.185848 3.0383432 0
16.726776 23.152319 3.0311894 0
23.987421 23.117632 3.0643535 36
15.986465 23.264387 3.0790718 0
16.394995 23.200109 3.0532804 1
16.494678 23.213148 3.0496817 0
16.100954 23.301233 3.081399 0
-22.655571 23.843325 3.0342007 8
-22.688648 24.002405 3.0599837 3
14.685683 24.069805 3.0180554 255
14.595432 24.198095 3.0413911 32
14.660147 24.168684 3.0340619 255
36.963436 24.299242 3.0555933 13
23.873846 24.469198 3.0013514 20
36.971676 24.44211 3.0872579 18
37.31488 24.408224 3.0589097 4
-24.353001 24.593626 3.0795276 1
23.814611 24.528696 3.0147066 73
-41.911434 24.678698 3.0847113 3
23.838373 24.680841 3.03929 16
-27.894751 24.795652 3.0145054 6
-27.730059 24.782093 3.0252752 13
-27.618176 24.78249 3.0291543 37
23.765732 24.738413 3.0550888 25
23.617094 24.835495 3.0810025 20
23.748672 24.849272 3.0779135 44
-27.62546 24.913769 3.0548844 2
-19.795755 24.930784 3.0789592 170
23.591169 24.937372 3.0994298 19
-20.059835 25.12912 3.0979724 53
23.773352 25.183044 3.0166965 12
23.706263 25.247635 3.0335472 19
23.778395 25.451414 3.0646973 7
-27.979132 25.555813 3.0432446 1
-27.871576 25.560881 3.0516572 4
23.837008 25.647047 3.0946555 2
-30.303699 25.7127 3.0417991 1
-27.985312 25.774141 3.0851023 1
-27.905382 25.828588 3.0980613 1
-30.441271 25.960304 3.0817835 1
20.021965 26.892862 3.0702891 0
20.159883 26.937378 3.0682759 0
5.6280956 27.256516 3.0302331 255
5.7015266 27.246714 3.0254366 255
5.8072953 27.397406 3.0414679 255
5.624341 27.599411 3.0701711 218
5.9848485 27.504728 3.0517395 7
-28.720854 27.682747 3.0137651 29
5.2585344 27.654661 3.0847399 81
5.5625558 27.690199 3.0814409 109
5.9305825 27.625477 3.0662615 39
-28.884483 27.701656 3.0045266 18
5.3457718 27.726603 3.0917387 96
5.5012965 27.757868 3.0902371 86
-28.987293 28.079285 3.0691967 6
-28.874269 28.115271 3.0804281 23
-28.734447 28.11726 3.0921636 11
-28.793169 28.461853 3.0166571 1
-28.731825 28.543364 3.0333457 0
21.262857 29.003765 3.0084941 2
-14.119686 29.136553 3.0143631 7
-13.970535 29.168612 3.026587 0
-5.7608953 29.169661 3.0477314 96
21.268982 29.164482 3.0338252 6
-14.068467 29.221615 3.0289042 0
-5.6937819 29.24334 3.0568287 65
-13.968798 29.36735 3.049927 6
-5.177103 29.372372 3.0833879 148
-5.057909 29.360712 3.0844071 82
-4.6991906 29.351807 3.0903027 121
-5.3466883 29.408276 3.0844574 77
-5.2647023 29.422766 3.0873282 61
21.333235 29.412352 3.064769 1
-11.641401 31.061436 3.0767376 120
-6.523932 31.099722 3.0639749 16
-6.4250255 31.023674 3.057724 23
-11.754667 31.11784 3.0790534 255
-6.7077723 31.170628 3.0683668 2
-6.631001 31.207098 3.0733833 7
-6.8358092 31.369772 3.0870073 2
-6.94381 31.458462 3.0946429 4
5.5616307 31.44652 3.0980289 255
33.395054 31.931866 3.0627706 2
33.696739 32.048309 3.0659511 14
33.895477 32.076534 3.0544357 94
-28.835138 32.139042 3.0917189 11
34.483086 32.469631 3.0826249 4
-15.779812 32.545498 3.0670094 106
-15.720868 32.637108 3.0823948 0
-15.63801 32.673477 3.0891352 0
-1.4716203 32.670231 3.0631518 2
6.0381575 32.673332 3.0230114 0
-1.3900164 32.723671 3.0679047 4
-1.3114127 32.883827 3.0828764 9
6.0078087 32.98737 3.0544093 116
36.195751 33.08168 3.065783 2
36.39537 33.072235 3.051075 2
-32.653881 33.238152 3.0081961 9
-53.761337 33.996063 3.0533845 5
-53.639091 34.097553 3.0866635 5
-29.005161 34.341473 3.0074549 6
-9.1623907 34.536674 3.0893252 104
-53.808922 34.611805 3.0335963 3
-29.105692 34.639938 3.044893 18
-29.053787 34.753895 3.0617003 77
-54.195667 35.059292 3.098238 3
32.936729 35.139538 3.0184479 3
32.695656 35.238899 3.0542417 18
32.834549 35.212986 3.0359778 17
32.63559 35.350677 3.0754585 9
-8.0866861 35.409126 3.0017734 7
32.559917 35.458443 3.0958905 10
-8.0700331 35.74696 3.036315 0
3.6676481 41.623043 3.0777466 34
3.7798712 41.627926 3.0788701 135
3.5686457 41.736435 3.0896327 25
0.18264209 44.247681 3.0151401 14
0.86167395 44.264603 3.0168741 89
0.29393342 44.37677 3.0241566 2
0.52710104 44.364628 3.023463 8
0.40849894 44.435715 3.0283179 24
0.63951057 44.480377 3.0316124 95
5.9146733 44.653675 3.001929 255
0.75906658 44.730427 3.049125 30
6.4088202 44.848221 3.0065179 56
-12.113032 11.580882 3.122946 1
-12.149154 11.675898 3.1487358 1
-12.153677 11.743342 3.1666627 1
-5.2105489 11.785897 3.1052308 2
17.639378 11.741202 3.1376953 12
20.011549 11.797177 3.142617 12
-5.1695194 11.814384 3.113498 5
17.263317 11.825982 3.1597443 16
17.429407 11.870843 3.172225 255
17.754147 11.886574 3.1768069 9
-7.9454226 11.958261 3.1822767 1
-5.1586452 11.925204 3.1420307 9
-2.848784 11.939491 3.1232791 106.5
-2.5831599 11.953445 3.12468 255
17.358522 11.922332 3.1220262 255
17.522642 11.968818 3.1339998 177
17.6541 11.957764 3.1954324 255
17.74844 11.931224 3.1231728 10
20.232592 11.998181 3.1989615 12
-7.9382186 12.017515 3.1968784 1
17.392641 12.083012 3.1650867 61
17.759657 12.050596 3.1555533 255
-11.027939 12.181106 3.117259 1
-2.8442135 12.147771 3.1774025 255
-2.7570293 12.167824 3.182519 255
-2.4057539 12.143559 3.1738482 255
-1.9908514 12.194019 3.185461 255
16.871517 12.124952 3.1767099 43
16.93977 12.104953 3.171226 32
17.139851 12.180707 3.1908419 174
17.563532 12.134161 3.1803498 187
17.938671 12.119134 3.1749363 195
-6.1902633 12.205061 3.1072459 17
-2.6087849 12.237168 3.1994836 255
-2.3788424 12.229886 3.1958673 255
-2.2519011 12.287173 3.1145816 255
-2.10183 12.220324 3.1932936 255
-2.0308831 12.217148 3.1918783 255
-6.2007227 12.310661 3.1342978 21
-2.8513598 12.385726 3.1421609 255
-2.3200924 12.360181 3.1333725 255
-2.0750952 12.316689 3.1227067 255
-1.995854 12.380565 3.1386702 255
-1.1209958 12.371216 3.1357055 12.5
-16.500961 12.480569 3.1835508 2
-16.34981 12.435677 3.1726124 2
-12.427992 12.479318 3.1961274 1
-10.941986 12.486078 3.1965647 87
-10.879292 12.470413 3.1283751 68
-6.2110291 12.446136 3.1350908 15
-6.1512456 12.456598 3.1374786 28
-1.1810216 12.437765 3.1522481 17
-1.0752302 12.473576 3.1614971 17
-10.867608 12.527379 3.1434321 255
-5.7896867 12.584019 3.1316159 255
-2.0520649 12.506728 3.1713836 255
-1.0270181 12.534256 3.1779318 23
-0.97091168 12.581523 3.1067512 72
-0.82116705 12.585045 3.1909122 28
-0.7650221 12.575191 3.1605453 27.333334
-10.886139 12.686074 3.1839294 2
-10.146604 12.630143 3.1665049 1
-10.078094 12.613351 3.1619987 0
-2.8415573 12.645045 3.1299264 255
-2.3648577 12.65889 3.1331599 255
-1.0121702 12.624799 3.1170776 38
-0.83687341 12.620086 3.1152611 35
-0.76617807 12.641277 3.1207359 27
-5.8644915 12.747601 3.1737604 255
-5.7499895 12.730951 3.168489 88
-1.3130481 12.74692 3.1491973 24
-1.2575663 12.731478 3.1452737 25.5
-0.73595512 12.752379 3.1481025 8
0.67898613 12.797189 3.1572073 255
0.71195602 12.763767 3.1493044 255
16.623077 12.789416 3.1494389 52
16.755901 12.74889 3.1380415 179
16.937031 12.747194 3.1357739 255
-1.5125605 12.886679 3.1854801 255
-0.7013942 12.800216 3.1608915 255
-0.66731137 12.857886 3.1748843 0
0.64262831 12.811207 3.1602468 255
16.575994 12.893274 3.1761754 134
16.615749 12.870428 3.1369791 51.5
16.829359 12.805139 3.1510749 255
17.213076 12.884905 3.1687324 255
-1.6851894 12.962481 3.1078403 255
-1.5762382 12.975707 3.1093574 255
-1.479888 12.922013 3.194608 255
-0.72866607 12.995522 3.1158009 105
0.093451291 12.941207 3.194411 255
0.13930905 12.952499 3.1523082 255
0.590527 12.970066 3.1118567 255
0.73049396 12.943472 3.1071162 255
16.507086 12.940881 3.1208332 51
-13.578341 13.078032 3.1006098 177
-11.687818 13.082538 3.1169078 14
-1.7328901 13.025134 3.1230364 255
-0.32458341 13.044782 3.1291122 3
0.075650446 13.095901 3.1422288 255
0.14953987 13.030839 3.1265137 255
0.22388881 13.048044 3.1309614 255
16.557777 13.090088 3.1584568 25
-13.456194 13.123019 3.1143308 22
-13.321703 13.114526 3.1127913 3
-13.241699 13.12158 3.1160934 7
-1.4456829 13.158354 3.1550522 255
-1.3713875 13.161224 3.1551473 255
-0.6604383 13.115653 3.1454744 255
0.44935435 13.165012 3.1593447 255
-14.012729 13.280593 3.1488454 1
-13.310207 13.29762 3.1594162 79
0.48926017 13.214627 3.1717932 255
0.54790676 13.242678 3.179203 255
0.97136813 13.203393 3.1715264 255
1.0524029 13.270512 3.1880078 44
-0.42194909 13.360608 3.116873 255
-0.29272959 13.3215 3.1966906 255
-0.13806503 13.330063 3.1082153 255
0.30664814 13.313001 3.1034703 255
0.41686255 13.302157 3.1925409 255
1.0915676 13.321238 3.10414 255
-14.146813 13.477398 3.1970918 1
-14.025038 13.424932 3.1160846 248
-13.999394 13.410727 3.1803935 9
0.050368883 13.415874 3.1284165 255
-13.407413 13.539612 3.1495085 255
0.079407759 13.522763 3.1538124 255
0.34883636 13.546537 3.1588571 255
-2.0303855 13.637845 3.1844761 255
-1.9888405 13.6289 3.1823709 255
1.163094 13.691556 3.1913795 152
1.7689371 13.67268 3.1861804 9.5
-1.9867043 13.799953 3.11747 188
-1.8628067 13.727903 3.1014991 34
-0.089116231 13.767545 3.1168644 74
1.2039033 13.702678 3.1948287 255
1.4497304 13.730252 3.1107376 12.666667
1.6800623 13.763275 3.1181791 11
1.7790365 13.757505 3.1169033 23.5
1.839681 13.709329 3.1648462 0.33333334
-1.8675467 13.995039 3.163404 11
1.3910114 13.923988 3.1544769 10
1.7411387 13.918099 3.1536441 7
1.3219298 14.023417 3.1770735 29
-0.64106274 14.137838 3.1052229 36
1.369781 14.109404 3.1977642 17
-14.003538 14.258388 3.1312857 1
-12.947659 14.213846 3.1366072 0
-11.036236 14.227346 3.163027 255
-10.252133 14.250653 3.1051788 0
-2.0043328 14.265187 3.1325417 3
-0.68546593 14.238655 3.1267385 112
0.18595716 14.282672 3.1360247 15
0.22458981 14.204337 3.1172118 33
-11.201903 14.321975 3.1817853 255
-1.8511642 14.302189 3.1404874 0
-0.73277825 14.385328 3.159966 57
0.14639322 14.312412 3.1425669 76
17.408579 14.327742 3.176939 30
-14.143761 14.478748 3.1799791 1
-14.073378 14.47555 3.1449547 0.5
-13.995825 14.480525 3.1835709 1
-13.153914 14.4317 3.1150346 78
-13.074201 14.430443 3.1850176 245
-1.5236995 14.428644 3.1693101 43
-14.074907 14.553876 3.127038 10
-11.898849 14.536593 3.1533668 1
-0.11810271 14.562282 3.1482811 59
24.115227 14.591404 3.1785414 9
24.205658 14.560446 3.1690896 9
25.02001 14.548044 3.1468871 16
-0.077573262 14.65611 3.11869 57
0.20773658 14.654833 3.11869 10
24.224766 14.641728 3.1206529 9
-0.31786504 14.770761 3.1412511 11
25.145075 14.704835 3.1845474 11
-0.6103121 14.813496 3.1495023 20
-0.56858283 14.805068 3.1488149 10
-0.4033187 14.827333 3.1539421 1
-0.3635461 14.835696 3.1555285 0
0.16783191 14.867929 3.1647358 11
-0.52983689 14.91898 3.1731286 8
16.937515 14.956237 3.1164687 226
-0.57431871 15.079306 3.1094651 4
-0.49208295 15.096901 3.112545 3
16.973232 15.066288 3.1438 177
-0.64118087 15.158919 3.1252017 4.5
16.988316 15.162609 3.165556 223
-25.319199 15.246181 3.102633 3
-25.171701 15.246531 3.1063306 3
-11.702375 15.236943 3.1386938 12
-11.34972 15.28039 3.1561751 255
-11.118966 15.272293 3.1581173 8.5
16.93364 15.21205 3.1404259 255
-11.818004 15.301947 3.1513441 33
-11.100154 15.373243 3.1795962 48
-0.71475887 15.369948 3.1700966 1
15.232034 15.303741 3.157866 10
15.324713 15.311209 3.157752 41
16.902227 15.362326 3.1383402 10
-11.56682 15.401683 3.1773486 255
15.241241 15.434114 3.1885839 7.5
15.505367 15.408419 3.178308 2
17.218155 15.403275 3.1410165 47
-15.745402 15.593726 3.1291585 14
-11.217587 15.529457 3.1333599 28
-15.687475 15.608224 3.1334016 2
-11.232787 15.637963 3.1553297 255
14.894173 15.949191 3.1053476 37
15.173815 15.987742 3.1047413 63
-16.122066 16.045403 3.1442175 12
14.894179 16.03546 3.1230779 49
15.10931 16.005852 3.1110635 39
15.292986 16.030716 3.1131861 164
15.395384 16.051283 3.1145263 99
-16.184734 16.197735 3.1768031 0
14.953274 16.181931 3.1552215 6
15.532344 16.110094 3.1253159 19
15.681828 16.177687 3.1359386 1
-11.006933 16.522268 3.1707122 23
-10.926243 16.500717 3.1663976 100
-11.114861 16.664272 3.1167154 32
-11.063765 16.688278 3.1213179 44
-0.30475682 17.961119 3.1004884 0
-0.40574139 18.116724 3.1281898 137
7.5554242 18.140507 3.1765175 0
8.651927 18.766497 3.1701446 8.5
8.7686958 18.762699 3.1661348 29
9.2476978 18.744228 3.1535811 0
8.8823929 18.826321 3.1764669 22
5.632791 19.016285 3.1067109 191
24.954294 19.146896 3.1193497 5.5
4.6692419 19.258286 3.162499 107.5
4.8096662 19.264267 3.1610773 142
4.8972545 19.392704 3.1827536 100
4.6303201 19.413092 3.189389 206
8.8234301 19.409725 3.103796 0
8.9234533 19.495222 3.1172707 0
9.0866423 19.432793 3.1022396 0
4.5714793 19.667215 3.114116 53
7.5653195 19.62557 3.1747122 4
7.6370339 19.656372 3.1790099 11
4.4651914 19.778116 3.1343212 52
4.5371556 19.756186 3.1284778 41
7.5388751 19.708183 3.1883981 2
7.1111264 19.875502 3.1129587 0
7.3445625 19.848301 3.1024477 0
4.4134679 19.909443 3.1557271 35
7.0758629 19.93992 3.1244531 0
7.1958652 19.942892 3.1226218 0
7.3147736 19.932428 3.1168675 0
11.856766 20.366211 3.1881125 255
11.946501 20.330706 3.1773505 255
11.770833 20.498491 3.1077256 255
12.187366 20.43228 3.1887395 255
11.84551 20.505125 3.1065373 255
11.756338 20.663597 3.1364179 47
11.572098 20.788759 3.1609669 13
11.629648 20.7605 3.1544418 10
11.702176 20.763418 3.1525857 8
11.560877 20.895943 3.1799126 8
-27.697256 20.971109 3.1529882 84
-27.924061 21.03005 3.1526067 18
-27.724838 21.101068 3.1791391 139
13.069701 21.198839 3.1846559 0
13.198864 21.161732 3.1747947 0
13.183962 21.260429 3.1919649 0
24.667156 21.358248 3.1056118 1
-2.8336554 21.967592 3.1950698 0
8.1338358 22.064392 3.1479752 6
7.9696426 22.17268 3.1679764 2
8.0659361 22.149324 3.162539 3
11.617283 22.147781 3.1813867 0
-33.489288 22.275467 3.1306763 3
7.750824 22.207355 3.1785436 5.5
7.8824887 22.299742 3.1896138 2
7.9260259 22.232368 3.178277 4
11.574425 22.2092 3.1906936 0
-33.467628 22.377104 3.1531601 3
-34.214157 22.4 3.1168094 6
11.824503 22.451456 3.1072161 9
23.839968 22.905087 3.1431277 42
23.997946 22.933023 3.1399481 45
16.250717 23.088623 3.1539705 0
16.653486 23.076061 3.1323538 0
14.800284 23.170401 3.1126266 43
16.138035 23.1831 3.1746604 0
16.207359 23.154367 3.1655054 0
16.446957 23.171944 3.1580713 0.5
16.540823 23.108446 3.144562 0
14.766295 23.249878 3.1262901 42
23.94603 23.313946 3.1034989 129
24.133995 23.379765 3.1043031 16
15.075696 23.466955 3.1503916 9
16.051626 23.48838 3.1148467 0
16.021883 23.574396 3.1291549 0
24.08671 23.57177 3.1430297 21
15.952465 23.667351 3.1486788 0
15.853685 23.702145 3.1582153 0
24.160578 23.771496 3.1777301 27
-22.648499 23.835884 3.1415832 9
24.091948 23.817081 3.1893196 21
-22.748604 24.03804 3.1721678 6
36.920879 24.19688 3.1428711 5
37.010868 24.387066 3.1815836 13
36.497578 24.401651 3.1042831 4
-24.451635 24.56077 3.1766894 8
-24.403175 24.6348 3.1951966 18
36.471756 24.648684 3.1593797 69
36.639977 24.629328 3.147471 8
-24.383333 24.74748 3.1048234 10
-41.765377 24.879715 3.1347568 3
-42.253685 25.027784 3.1435776 39
23.547596 25.020933 3.1189029 5
23.638597 25.224098 3.1517329 2
23.66692 25.35656 3.1725814 1
-28.110449 25.478395 3.134959 1
-28.08371 25.587067 3.1578076 1
-28.005762 25.644304 3.1745636 1
-27.997368 25.765377 3.1993985 1
-27.860794 25.915819 3.118602 1
5.9975557 26.891251 3.1842482 224
20.056906 26.864313 3.1968067 1
20.120552 26.836485 3.1885922 1
34.624176 26.886862 3.1841528 64
34.729877 26.830235 3.1665862 38
19.999479 27.160904 3.1120012 0
19.948877 27.239813 3.1282449 0
5.2111645 27.827644 3.1054945 1
5.442585 27.840029 3.1007044 50
5.160953 27.915026 3.1168301 1
-28.660402 28.190611 3.1114621 0
5.1546173 28.213966 3.1523817 0
-28.735071 28.410906 3.1473529 0
-28.615461 28.43428 3.1575117 0
5.1276665 28.54678 3.1913304 0
-14.144943 29.121922 3.1615951 0
33.778854 29.198116 3.1267328 1
-14.063864 29.241783 3.18136 13
-13.988805 29.279852 3.1878412 7
-2.822418 29.248484 3.1055529 38
-2.7411373 29.258408 3.1086433 71
33.516754 29.270876 3.158968 1
33.644485 29.229033 3.1424389 3
-3.3798196 29.385582 3.1150684 255
-3.0641215 29.3619 3.1174405 65
-2.947809 29.352398 3.1165814 84
-2.6724389 29.34433 3.1200476 77
-2.5964785 29.373701 3.1224611 59
-3.3060646 29.416182 3.1203125 255
-3.1538396 29.490091 3.1293018 97
-2.5226028 29.407276 3.1282461 80
-2.452487 29.487726 3.1391404 166
-2.3673503 29.457285 3.1351106 105
-2.2872834 29.416246 3.1300063 23
33.35508 29.424469 3.1961374 3
33.571785 29.466898 3.1928351 9
-4.9728179 29.549639 3.1069551 45
-4.8145084 29.580282 3.1132376 89
-2.2195387 29.535789 3.1452093 255
-3.4933522 29.677864 3.1447403 255
-4.9164248 29.72006 3.1266606 95
-3.5854633 29.794563 3.1583319 255
-3.2655859 29.750813 3.1555536 51
-6.2286882 29.893 3.1167321 3
-6.163115 29.962345 3.1253603 7
-3.7037487 30.070946 3.1863358 255
-6.3607154 30.13493 3.1411893 2
-6.1253624 30.175011 3.1522434 12
-6.6003504 30.458406 3.1701941 0
-6.5288868 30.539295 3.1828928 1
5.4864287 31.497309 3.1047893 255
-7.0574498 31.583902 3.1059079 0
-1.7841356 31.576752 3.1750858 95
5.4149466 31.564081 3.1132822 255
5.3529282 31.695471 3.1282001 255
5.8331447 31.633495 3.1116393 255
5.7301235 31.793289 3.1315799 255
5.2925105 31.859156 3.1463511 255
5.217207 31.93681 3.1558795 214
5.8215194 31.931263 3.1434543 142
33.795944 31.902555 3.1850753 57
33.971119 31.907917 3.1717479 29
-28.729126 32.18214 3.1055584 6
5.0805635 32.147133 3.1806703 255
-28.628048 32.229492 3.1199195 3
33.528252 32.219704 3.1051254 4
-28.561132 32.321373 3.1383195 1
33.678783 32.695412 3.1756911 255
33.797256 32.646961 3.1565726 17
