# .PCD v0.7 - Point Cloud Data file format
VERSION 0.7
FIELDS x y z
SIZE 4 4 4
TYPE F F F
COUNT 1 1 1
WIDTH 1444
HEIGHT 1
VIEWPOINT 0 0 0 1 0 0 0
POINTS 1444
DATA ascii
0.37755212 0.87686926 -0.61038113
0.41571015 0.95038712 -0.62195933
0.45559168 1.0268116 -0.63189697
0.4925192 1.0949997 -0.63225311
0.53411013 1.1749055 -0.63515145
0.58756375 1.2760001 -0.6437149
0.62534219 1.342195 -0.62993866
0.56141919 1.1987742 -0.64173615
0.60624915 1.2777982 -0.63924682
0.64368862 1.3414999 -0.62399447
0.029860768 0.092014365 -0.12376404
0.28358266 0.69955826 -0.59240675
0.30455425 0.73677003 -0.59149092
0.33312216 0.79588246 -0.6029039
0.35421616 0.83207589 -0.59721231
0.39146474 0.90512514 -0.61096644
0.43321347 0.98708391 -0.62680066
0.47175556 1.0598871 -0.6314019
0.51518399 1.1429567 -0.63835788
0.56214255 1.2335196 -0.64309192
0.60145724 1.3038068 -0.63426816
0.65349579 1.3994818 -0.63138777
0.58542651 1.2457764 -0.6440987
0.62561637 1.3158038 -0.6342535
0.67503697 1.4050637 -0.62869847
0.031787954 0.098267958 -0.13169196
0.27477273 0.68639463 -0.59674376
0.29471213 0.72280347 -0.59500575
0.32151309 0.77384317 -0.60354751
0.34465227 0.81882292 -0.60305232
0.37255925 0.87212485 -0.60638011
0.41219556 0.94961745 -0.62064177
0.44813085 1.0180786 -0.62599951
0.48938838 1.0964847 -0.63213366
0.52691591 1.1662256 -0.62981904
0.58202499 1.2736323 -0.64147335
0.62154865 1.344103 -0.62964594
0.56274253 1.210816 -0.64675134
0.59951061 1.2734246 -0.63619614
0.64883226 1.3623527 -0.63203949
0.023526963 0.077399001 -0.11166488
0.28402188 0.70602918 -0.59670681
0.3017689 0.73576009 -0.59000385
0.33026004 0.79201996 -0.6001125
0.35444084 0.83902478 -0.60101408
0.38808477 0.90430087 -0.60962582
0.43139818 0.98942626 -0.62777084
0.46611622 1.0552131 -0.62778658
0.50912392 1.1383301 -0.63502336
0.559627 1.2352011 -0.64295757
0.5937317 1.2972653 -0.63031876
0.64742434 1.3973022 -0.62929988
0.58080083 1.2455654 -0.64282614
0.61375767 1.3010012 -0.62658876
0.67307663 1.4112754 -0.63030416
0.022888307 0.074625231 -0.11170751
0.27298954 0.68718594 -0.59666878
0.29197991 0.72178221 -0.59349412
0.3185665 0.77294648 -0.60199922
0.34256202 0.81796247 -0.60154873
0.36851394 0.8692466 -0.6037457
0.40868819 0.94883579 -0.61932462
0.44611514 1.0214659 -0.62704551
0.48443845 1.0939171 -0.62969691
0.52455026 1.1699286 -0.63060534
0.57923084 1.2775164 -0.6423161
0.62052655 1.3523338 -0.63226438
0.55835289 1.2104928 -0.64545774
0.5978806 1.2794305 -0.6378569
0.64498371 1.3643287 -0.63174123
0.26069131 0.6630677 -0.59049195
0.28057751 0.70311576 -0.59371239
0.30058098 0.73855674 -0.59132963
0.32976887 0.79685688 -0.6027301
0.35394841 0.84205306 -0.60221982
0.38732687 0.9094882 -0.61191142
0.42590347 0.98469609 -0.62410724
0.46219134 1.0545862 -0.62654382
0.506823 1.1419759 -0.63584512
0.55790126 1.2411457 -0.64471066
0.59295928 1.3053877 -0.63289058
0.64626771 1.4056376 -0.63182151
0.57627922 1.2452267 -0.64169043
0.6140483 1.3112528 -0.63006252
0.67299294 1.4218289 -0.63351285
0.26661849 0.67686903 -0.58761102
0.29083735 0.72459131 -0.59476888
0.31568322 0.77195549 -0.60053587
0.34036681 0.81895721 -0.6014595
0.36779889 0.87430632 -0.60618967
0.4077329 0.95414883 -0.62154442
0.4459967 1.0279154 -0.63029259
0.48416093 1.1014849 -0.63287389
0.52401155 1.1777205 -0.63359869
0.58043075 1.2876692 -0.64596242
0.61462671 1.3500686 -0.63012791
0.55394441 1.2101004 -0.64429694
0.59622228 1.2854379 -0.63951582
0.6429916 1.3705658 -0.63326162
0.25600046 0.65642464 -0.58437824
0.27875242 0.7039212 -0.59363574
0.30017099 0.74326283 -0.59406102
0.32925525 0.80169731 -0.60534686
0.35077026 0.84114629 -0.60083091
0.38652197 0.9146269 -0.61429477
0.42584088 0.99205917 -0.62744731
0.4628045 1.0632043 -0.63082433
0.5090856 1.1558831 -0.64213687
0.55530471 1.2448972 -0.64558655
0.59203333 1.3114197 -0.63465106
0.64411509 1.4119105 -0.63329768
0.57856017 1.2594692 -0.64741284
0.61610484 1.3257188 -0.63555574
0.67082155 1.4281139 -0.63511586
0.24753101 0.64340693 -0.58778572
0.26722389 0.68142658 -0.59050596
0.29029047 0.72930562 -0.59755397
0.31504965 0.77679801 -0.6032092
0.33882672 0.82196999 -0.60269457
0.36537296 0.87355101 -0.60473037
0.40576679 0.95744622 -0.62265372
0.44294944 1.0293162 -0.63018084
0.48172435 1.1051513 -0.63473278
0.51673073 1.1711478 -0.62918371
0.57366818 1.2832278 -0.64288026
0.6076563 1.3425603 -0.62629753
0.55319041 1.2160655 -0.64608943
0.59315449 1.289483 -0.64034468
0.63981646 1.3747076 -0.63402116
0.25563091 0.66092139 -0.58732688
0.27695122 0.70292562 -0.59210074
0.29646954 0.74043512 -0.59108764
0.32453769 0.79695183 -0.60111797
0.34753689 0.84031522 -0.59935099
0.3848027 0.91485602 -0.61419535
0.42202199 0.99138153 -0.62615484
0.45607311 1.0564781 -0.6261999
0.50109667 1.1471335 -0.63666588
0.55060077 1.244635 -0.64430618
0.58711195 1.3112447 -0.6334157
0.63693631 1.4044491 -0.62958223
0.57478732 1.2592883 -0.64613956
0.61209553 1.3277273 -0.63526648
0.66551012 1.4281671 -0.63392574
0.24657609 0.64596343 -0.58925116
0.26470587 0.68032807 -0.58894747
0.28685859 0.72633785 -0.59461093
0.3105779 0.77193671 -0.59898901
0.33245271 0.81320584 -0.59598458
0.36126831 0.87067389 -0.60209781
0.40067124 0.9496119 -0.61769855
0.43911842 1.0286301 -0.62891299
0.47946709 1.1086634 -0.6357109
0.51523107 1.1768565 -0.63113576
0.56991124 1.2850496 -0.64260203
0.60372478 1.3444765 -0.62600607
0.59050804 1.2913065 -0.64006358
0.62987936 1.3640634 -0.62826949
0.024095843 0.07975696 -0.11312747
0.27437028 0.7018348 -0.59056616
0.29291403 0.7374807 -0.5881961
0.31830099 0.78821307 -0.59427506
0.34437358 0.83938622 -0.59796298
0.37802368 0.90601009 -0.60789192
0.41833216 0.9907012 -0.62475538
0.45129156 1.0538219 -0.62371689
0.49238926 1.1362816 -0.63000518
0.54705375 1.246282 -0.64417136
0.58337939 1.312992 -0.6332736
0.6328271 1.4064499 -0.62927765
0.56916505 1.2568953 -0.64400566
0.60444474 1.3211933 -0.6312232
0.65836138 1.4238952 -0.63098001
0.24482718 0.64670736 -0.58918077
0.2628682 0.68111867 -0.58887345
0.28437036 0.72338665 -0.59166855
0.30852219 0.77290022 -0.59882104
0.32947823 0.81226599 -0.59448397
0.35968289 0.8737399 -0.60327178
0.39634895 0.94682711 -0.61506754
0.4335646 1.0239118 -0.62522304
0.47632113 1.1101664 -0.63547051
0.50914729 1.1712143 -0.62776333
0.56531626 1.2846488 -0.64148277
0.60466665 1.3568674 -0.63046169
0.54521912 1.2164041 -0.6446647
0.58781832 1.2952145 -0.64075077
0.63177162 1.3787262 -0.63342184
0.24993949 0.65685898 -0.58265352
0.27399981 0.70547527 -0.59332883
0.29037577 0.73451263 -0.58530539
0.31777817 0.79303718 -0.5968914
0.34212241 0.84038532 -0.59787178
0.37215883 0.8991853 -0.60273361
0.42004356 1.0000397 -0.62938386
0.45280209 1.0653917 -0.62923563
0.49365997 1.1481251 -0.63522434
0.54260331 1.2448812 -0.642892
0.58330208 1.3232883 -0.63678962
0.62679195 1.4041787 -0.62719363
0.56465954 1.2565645 -0.64273429
0.6054278 1.3314745 -0.63483262
0.65713269 1.4322795 -0.63345921
0.24314183 0.64742142 -0.58911043
0.26109725 0.68187737 -0.58879936
0.28242141 0.7242282 -0.59158999
0.30636504 0.7738387 -0.59873706
0.32802239 0.81522155 -0.59571928
0.3580839 0.87680417 -0.60444534
0.39532909 0.95207053 -0.61738914
0.43347457 1.0292668 -0.62742287
0.47047457 1.1054209 -0.6320582
0.50762153 1.1769127 -0.62971425
0.56168169 1.2853905 -0.64120489
0.60258967 1.3630211 -0.6320076
0.54458594 1.2243268 -0.64748162
0.58304679 1.2949281 -0.639642
0.6277414 1.3785496 -0.63236403
0.25039625 0.66315669 -0.58711082
0.27209449 0.70629025 -0.59325218
0.29224631 0.74496424 -0.59225065
0.31715271 0.79789722 -0.59950697
0.34467563 0.85327071 -0.60555744
0.37300932 0.90830523 -0.60759664
0.41641715 0.99925107 -0.62809181
0.45163152 1.0688181 -0.6302467
0.48759738 1.1434931 -0.63177198
0.53801239 1.2444645 -0.64174801
0.58140725 1.3282548 -0.63854629
0.62361288 1.4082302 -0.62793124
0.56485468 1.266609 -0.6465888
0.59973842 1.3291124 -0.63266766
0.65100777 1.427966 -0.63051546
0.034948688 0.10749832 -0.13926925
0.25925529 0.68265867 -0.58872527
0.2834948 0.73168528 -0.59723651
0.30606237 0.77667516 -0.60003084
0.32663533 0.818142 -0.59695405
0.35905087 0.88585514 -0.60932714
0.39353406 0.95525938 -0.61849803
0.43052533 1.0305854 -0.62731147
0.46819904 1.1089095 -0.63303584
0.50504667 1.1805764 -0.63062561
0.55789095 1.2871238 -0.64106601
0.59574968 1.3584946 -0.62910151
0.53830242 1.2197186 -0.6442681
0.58223516 1.3030217 -0.64226347
0.6209408 1.3731092 -0.62934208
0.022502281 0.078269072 -0.11158198
0.26951659 0.70518118 -0.59171814
0.2894938 0.74395591 -0.59068424
0.31760526 0.80277944 -0.60203475
0.34394428 0.85831547 -0.60796404
0.37048647 0.90941685 -0.60749823
0.41186839 0.9965151 -0.6255089
0.44946855 1.072295 -0.63114154
0.48433068 1.1449645 -0.63164842
0.53448623 1.2461311 -0.64147919
0.58030587 1.3364512 -0.64110756
0.62043947 1.4123286 -0.62851602
0.55739462 1.2600417 -0.64232486
0.59871888 1.3373429 -0.6351915
0.6518442 1.4395901 -0.63459128
0.030345974 0.096606188 -0.13003132
0.25879705 0.68721437 -0.59161812
0.28062302 0.73067588 -0.59572601
0.30304277 0.77569842 -0.59856904
0.32347786 0.81719607 -0.59554231
0.3572312 0.88899595 -0.61049896
0.38987741 0.95453972 -0.61707973
0.42921156 1.03608 -0.62939823
0.46418238 1.1052934 -0.63060284
0.50068146 1.1801109 -0.62933224
0.55490869 1.2910653 -0.64176714
0.59537965 1.36895 -0.63248479
0.53553224 1.2235795 -0.64503014
0.58112484 1.3112382 -0.64488238
0.61376435 1.3688247 -0.62632281
0.2470938 0.6617983 -0.58645755
0.26820564 0.70793325 -0.5930987
0.28733864 0.74486995 -0.59060353
0.31606963 0.80572528 -0.60329807
0.33905825 0.85344142 -0.60398459
0.36697355 0.90864086 -0.60606176
0.4072167 0.99374902 -0.62303489
0.44195566 1.0634192 -0.62539703
0.48374078 1.1496887 -0.6335361
0.52977985 1.2457387 -0.64033604
0.57438898 1.3340545 -0.63906509
0.61708492 1.4164292 -0.63025248
0.55181634 1.2575765 -0.64019424
0.59179842 1.3329023 -0.63223505
0.63958687 1.4246571 -0.62742019
0.23896217 0.64863968 -0.58882886
0.25513887 0.67950147 -0.58553684
0.27344987 0.7181927 -0.58555275
0.30095577 0.77658862 -0.59848505
0.32299277 0.82014257 -0.59677678
0.35232547 0.88407809 -0.60660034
0.3872306 0.95569736 -0.61697662
0.42453501 1.0332942 -0.62697732
0.46363991 1.1129068 -0.63377315
0.49920255 1.1837102 -0.630243
0.55214071 1.2948362 -0.64260679
0.59041846 1.3686481 -0.63141829
0.52844763 1.2147571 -0.63976645
0.58007729 1.3193481 -0.64764112
0.60973334 1.3707089 -0.62617451
0.022203047 0.075651564 -0.11104928
0.26563326 0.70681041 -0.59156507
0.2860862 0.7476446 -0.59192705
0.31390509 0.80664951 -0.60321093
0.33608618 0.85049552 -0.60130167
0.36444944 0.90973634 -0.60596353
0.40532836 0.99704218 -0.62400311
0.4423807 1.0730518 -0.62966883
0.48133409 1.1532295 -0.63447928
0.53084582 1.2557966 -0.64410073
0.56864643 1.3316315 -0.63688028
0.6120044 1.4162319 -0.62905902
0.55191022 1.2646309 -0.64391202
0.59073061 1.3411275 -0.63475686
0.63652092 1.4287393 -0.62798822
0.023433378 0.080251485 -0.11619501
0.25329998 0.68026465 -0.58546311
0.2737346 0.72474045 -0.58976638
0.30041471 0.78140855 -0.60107088
0.32395625 0.8290174 -0.60188931
0.35411936 0.89317942 -0.61147791
0.38292369 0.95279968 -0.61445117
0.41997978 1.0304477 -0.62455726
0.45787376 1.108146 -0.63024479
0.49395272 1.1811252 -0.62791264
0.54481769 1.2860224 -0.63743615
0.58839315 1.3747253 -0.63296062
0.52866101 1.2247521 -0.64360696
0.572685 1.3095908 -0.64252377
0.60205543 1.364064 -0.62225211
0.24286923 0.66138828 -0.58480501
0.26326987 0.70380938 -0.58857507
0.2833212 0.74656308 -0.59044212
0.31242934 0.80955768 -0.60447359
0.3321324 0.84753418 -0.59861964
0.36355329 0.91484964 -0.60834348
0.40330392 1.0003203 -0.62507814
0.43845323 1.0723335 -0.62842822
0.47716278 1.1525961 -0.63328815
0.52637088 1.2552801 -0.64295751
0.56667674 1.3375797 -0.63863409
0.61341143 1.4309738 -0.63423526
0.54924852 1.2684361 -0.64463472
0.59356976 1.3546585 -0.64008486
0.63329643 1.4328792 -0.6285553
0.23583783 0.64993125 -0.58868808
0.2553744 0.69030195 -0.59280288
0.27388203 0.72732687 -0.59111828
0.30166647 0.78994352 -0.60649347
0.32128215 0.82785761 -0.60047752
0.35288894 0.89605922 -0.61264849
0.3831549 0.95991504 -0.61787778
0.42262575 1.0438764 -0.63125873
0.45525303 1.1093032 -0.63012546
0.49292791 1.1865582 -0.62986028
0.5489943 1.3043158 -0.64512306
0.58686078 1.380515 -0.63464934
0.52565408 1.2261275 -0.6434747
0.56947237 1.3110714 -0.64238232
0.60060155 1.3698748 -0.6239171
0.2442116 0.66946065 -0.59076786
0.26244712 0.70635724 -0.58995539
0.28459406 0.75500327 -0.59597671
0.31211618 0.81426358 -0.60708547
0.33098894 0.8493517 -0.59982312
0.36247006 0.91575193 -0.60824484
0.40186435 1.0033511 -0.62615275
0.43847132 1.0796378 -0.63168746
0.47530949 1.155885 -0.63423085
0.52328783 1.2566479 -0.64282262
0.56441933 1.3390999 -0.63834661
0.60900599 1.4304581 -0.63304019
0.54704958 1.2719634 -0.64549381
0.58931547 1.3540667 -0.63900256
0.63073808 1.4366456 -0.62927639
0.23275059 0.64686733 -0.58561987
0.25279826 0.68918252 -0.59124571
0.26972261 0.7223928 -0.58674932
0.29878771 0.78888541 -0.60503167
0.31664675 0.82290417 -0.59642202
0.34880626 0.89211011 -0.61001861
0.38231176 0.96308333 -0.61898488
0.41712037 1.0390054 -0.62768537
0.45122039 1.1086053 -0.62891048
0.4895381 1.1880417 -0.62973267
0.54246438 1.2996513 -0.64204919
0.5801456 1.3727646 -0.63082892
0.56758022 1.316998 -0.64417279
0.60134608 1.380304 -0.62724447
0.24031353 0.66459042 -0.58617014
0.25982049 0.70523876 -0.58842278
0.28504211 0.75870889 -0.59970248
0.31069234 0.81713939 -0.60834712
0.32862329 0.85034776 -0.59973145
0.36153805 0.92086589 -0.6106236
0.3991605 1.0025399 -0.62486273
0.43295112 1.0747278 -0.62819743
0.467594 1.1469728 -0.62865096
0.5197264 1.2582713 -0.64255285
0.56060565 1.340782 -0.63820291
0.60671484 1.4334756 -0.6337741
0.54342335 1.2736007 -0.6453566
0.58347195 1.3516299 -0.63698483
0.62373477 1.4300072 -0.62561935
0.22901766 0.6419903 -0.58094811
0.24818523 0.68237096 -0.58524197
0.26850003 0.72511113 -0.58810121
0.29383886 0.77905709 -0.5980649
0.31675214 0.82975948 -0.60029888
0.34474194 0.88914543 -0.60738951
0.3804546 0.96624917 -0.62009156
0.41424671 1.0402368 -0.62757373
0.44975066 1.1141319 -0.63098222
0.48527366 1.1874139 -0.62856817
0.53520495 1.2927837 -0.63799894
0.57353812 1.3681186 -0.62778133
0.51598984 1.2220392 -0.64000314
0.56463742 1.3209195 -0.64485449
0.60194582 1.3928266 -0.63162339
0.23858018 0.66529065 -0.58609819
0.25791478 0.70601434 -0.58834654
0.28078774 0.75374979 -0.59541023
0.30841586 0.81808209 -0.60825914
0.3254959 0.84939724 -0.59825385
0.35488772 0.91188675 -0.60433197
0.39722648 1.0058187 -0.62582892
0.42821604 1.0719612 -0.62571818
0.46345598 1.1462936 -0.62746179
0.51350749 1.2534896 -0.63939637
0.55844367 1.3467762 -0.63995445
0.59793514 1.424574 -0.62918437
0.53800869 1.2710671 -0.64309156
0.58241194 1.3598033 -0.6394999
0.6242407 1.4426982 -0.62968677
0.24843799 0.68877947 -0.58961457
0.26798782 0.72974771 -0.59088236
0.29546309 0.78967023 -0.60486156
0.31367517 0.82873869 -0.59888792
0.34305635 0.89218575 -0.60856014
0.37767932 0.9674176 -0.61998779
0.41309321 1.0435603 -0.62861538
0.44827607 1.119714 -0.63293314
0.48351407 1.193187 -0.63038647
0.53330839 1.2986891 -0.63967645
0.5749079 1.3827472 -0.63313895
0.51250201 1.2235901 -0.6398716
0.55996525 1.3204864 -0.64374703
0.59429806 1.3861158 -0.62770319
0.23434958 0.65664941 -0.57848614
0.2560783 0.70675844 -0.58827037
0.27582967 0.74683768 -0.58971596
0.30648622 0.81607413 -0.6067344
0.32398909 0.85233939 -0.59945643
0.35078499 0.90895677 -0.60165966
0.3944416 1.0069941 -0.62572104
0.42948523 1.0815501 -0.63009936
0.46529064 1.1602635 -0.63373399
0.51254398 1.261379 -0.64228302
0.55627483 1.3528243 -0.64156044
0.59390277 1.4264015 -0.62887919
0.5333612 1.2706223 -0.64195967
0.57840663 1.3615959 -0.63935363
0.62372446 1.4532038 -0.63303107
0.24725071 0.69136405 -0.5910967
0.26817128 0.73630869 -0.59509224
0.29407641 0.7924909 -0.60615247
0.31388935 0.83265048 -0.60244173
0.34135714 0.89522398 -0.6097303
0.37579927 0.97057575 -0.62109381
0.41349384 1.0520201 -0.63311571
0.44607168 1.1210741 -0.6328131
0.49298355 1.2262479 -0.6458028
0.53386301 1.3109758 -0.64442265
0.56993854 1.382368 -0.6320737
0.51433748 1.2357455 -0.64472967
0.55261177 1.3137268 -0.6396035
0.58561224 1.3772372 -0.62302971
0.2333165 0.65920585 -0.57992309
0.25627965 0.71224451 -0.59256142
0.27744433 0.75734246 -0.59665066
0.30420962 0.81700277 -0.60664654
0.322615 0.85331666 -0.59936476
0.35457483 0.92619359 -0.61146498
0.39640883 1.0204977 -0.6327005
0.42556077 1.0797815 -0.6288597
0.46638107 1.170114 -0.63774717
0.5097084 1.2651427 -0.64301968
0.55154008 1.3523455 -0.64046884
0.59150141 1.4325382 -0.6304996
0.53076106 1.2722759 -0.64168656
0.57260019 1.3591655 -0.63719159
0.62132478 1.4594703 -0.63446778
0.24839929 0.69785959 -0.59539288
0.26539838 0.73421061 -0.59358364
0.29031464 0.78950822 -0.60331571
0.31072879 0.8316471 -0.60103095
0.33900273 0.89427191 -0.60836834
0.37293571 0.97182292 -0.62088573
0.40876254 1.0492511 -0.63058496
0.44191757 1.1203829 -0.63159847
0.47918203 1.2004614 -0.63207465
0.5264076 1.3042138 -0.64023602
0.5675261 1.3885311 -0.6336115
0.5089305 1.2331321 -0.64254886
0.55576003 1.3304166 -0.6462152
0.58967352 1.397442 -0.6308738
0.022586342 0.080198504 -0.11398299
0.25597957 0.71494651 -0.59394014
0.27524832 0.75822091 -0.59656906
0.30110604 0.81598628 -0.60521036
0.31854084 0.85035604 -0.59668577
0.34789917 0.91719639 -0.60517734
0.38936391 1.0114925 -0.62668616
0.41991228 1.0749435 -0.62525827
0.45619708 1.1547704 -0.62910044
0.50597459 1.2667245 -0.64288449
0.55169082 1.3649193 -0.6449126
0.58523583 1.430203 -0.62842131
0.52599585 1.2718546 -0.64055556
0.5748809 1.3738006 -0.64265287
0.61596888 1.4582812 -0.6334371
0.24452704 0.69289774 -0.59087312
0.2612924 0.72922498 -0.58921731
0.28891769 0.79231977 -0.60460645
0.30774301 0.83056957 -0.59962058
0.33343416 0.88723338 -0.60320973
0.37103239 0.97497326 -0.62199092
0.40575373 1.0504988 -0.63047272
0.43788242 1.119633 -0.63038433
0.48845071 1.2335855 -0.64748073
0.52096069 1.3015252 -0.63814408
0.56255233 1.3881254 -0.63254672
0.5044387 1.2326595 -0.64126068
0.54753637 1.3214937 -0.64110875
0.58383113 1.3928152 -0.62801123
0.22900163 0.65875524 -0.5782733
0.25335199 0.71379954 -0.59240788
0.27320278 0.75903702 -0.59648758
0.29882932 0.81690043 -0.60512275
0.31541404 0.84931523 -0.59530097
0.34479445 0.91318208 -0.60260415
0.38337153 1.004431 -0.62185472
0.41683182 1.0762217 -0.62514329
0.45208159 1.1541009 -0.6277889
0.50155288 1.2641029 -0.64060247
0.54432428 1.3579901 -0.64098191
0.57836288 1.4255108 -0.62561113
0.52754247 1.2862492 -0.64624691
0.56726968 1.3670702 -0.63862228
0.61178607 1.4580662 -0.63225079
0.22339016 0.65096354 -0.58519965
0.24129179 0.68984079 -0.58783597
0.26172668 0.73385912 -0.59199661
0.28605995 0.79121369 -0.60314602
0.30617225 0.83348829 -0.60085225
0.33251643 0.89231753 -0.60555005
0.36697355 0.96895123 -0.6192596
0.40204126 1.0496299 -0.62920821
0.43305331 1.1168317 -0.62795717
0.48324847 1.2308265 -0.64527839
0.51554585 1.2967329 -0.63507676
0.55949646 1.3920109 -0.63316655
0.50092083 1.2341758 -0.6411286
0.54465699 1.3252592 -0.64193124
0.58245647 1.4011091 -0.63042396
0.022657802 0.082310379 -0.11546618
0.251421 0.71455634 -0.59233105
0.27359578 0.76378733 -0.59912896
0.29590032 0.81580395 -0.60368717
0.31465733 0.85429192 -0.59770495
0.34070843 0.9101522 -0.60003179
0.38388723 1.0108306 -0.62518126
0.41050184 1.0691675 -0.62053651
0.44878098 1.1554683 -0.6276657
0.50133425 1.2741141 -0.6444903
0.5387311 1.3532307 -0.637999
0.57254285 1.4228995 -0.62368786
0.52300209 1.2857087 -0.64511544
0.56605136 1.3751832 -0.64127755
0.60568005 1.4556203 -0.63034767
0.22299643 0.65534705 -0.5881952
0.24008237 0.6924119 -0.58931732
0.26323187 0.7442838 -0.59906137
0.28844434 0.80188811 -0.60993689
0.30532825 0.8383947 -0.60340422
0.33155447 0.89735156 -0.60798466
0.3681837 0.98026562 -0.62520003
0.39743322 1.0467192 -0.62679213
0.43639311 1.1349008 -0.63658792
0.48059183 1.2344543 -0.64605111
0.51954597 1.3165722 -0.64358193
0.55465472 1.3894194 -0.63118666
0.50429124 1.2525789 -0.6491819
0.54514784 1.3376036 -0.64660841
0.57655841 1.398648 -0.62831742
0.020364169 0.076784015 -0.11093266
0.25017196 0.71722269 -0.59370923
0.2729474 0.76848835 -0.60185111
0.29435039 0.81868029 -0.60494757
0.3145192 0.86125666 -0.60149211
0.34278092 0.92336625 -0.60735649
0.38501978 1.0222609 -0.63097417
0.41146553 1.0808359 -0.62603605
0.44547647 1.1568266 -0.62754256
0.49517757 1.269233 -0.64133847
0.53661513 1.3581923 -0.6396023
0.57024765 1.4268808 -0.62427002
0.51762354 1.2830844 -0.64285386
0.55848342 1.3684061 -0.63724995
0.60321951 1.461854 -0.63178247
0.21998806 0.65227109 -0.58505952
0.23894992 0.69500846 -0.59072411
0.26260743 0.74892902 -0.60183859
0.28557199 0.80077481 -0.6084761
0.30160555 0.83530575 -0.60067362
0.32905927 0.89834738 -0.60788876
0.36391494 0.97726715 -0.6226781
0.39384452 1.0437907 -0.62437689
0.42827806 1.1236457 -0.62990582
0.46214595 1.1977526 -0.62729424
0.5114274 1.3074772 -0.63856435
0.54885411 1.3868599 -0.62906015
0.49731728 1.2456927 -0.64482325
0.53961343 1.3350182 -0.64439595
0.57168525 1.3982085 -0.6272648
0.22639853 0.66830695 -0.58408815
0.25102147 0.72561097 -0.5994513
0.27227688 0.77319181 -0.60457242
0.29459146 0.82350284 -0.60755515
0.31137866 0.85919917 -0.60010731
0.34097525 0.92642653 -0.60849458
0.38130429 1.0213795 -0.62968516
0.40938902 1.0821449 -0.6268056
0.44464061 1.1645585 -0.63048786
0.49157873 1.2707763 -0.64106852
0.53346211 1.362 -0.64040327
0.56951904 1.4373149 -0.62765813
0.51297641 1.2825626 -0.64172369
0.56236279 1.389444 -0.64550257
0.60249603 1.4723629 -0.63511783
0.21879555 0.65483171 -0.58652186
0.23635164 0.69390339 -0.58909428
0.25982243 0.74780434 -0.60033
0.28254652 0.79970998 -0.60701561
0.30019251 0.83625144 -0.60058427
0.32572246 0.89634746 -0.60652816
0.36256525 0.98257637 -0.62488592
0.39312851 1.0513117 -0.62760842
0.42597094 1.1240447 -0.62966657
0.46177703 1.2077278 -0.63130492
0.50743878 1.3091115 -0.63842535
0.54548645 1.390767 -0.62982786
0.49536553 1.2494061 -0.64571279
0.52947551 1.3217748 -0.63751167
0.56731087 1.4001331 -0.62696618
0.22256312 0.66336089 -0.57949626
0.2469639 0.72063351 -0.59500986
0.26934087 0.77210432 -0.60308802
0.2915144 0.82249963 -0.60603195
0.30768728 0.85414404 -0.59613806
0.33520818 0.91942132 -0.60335106
0.37682131 1.018422 -0.62721688
0.40618026 1.0834322 -0.62669039
0.4420794 1.1649945 -0.630364
0.48853096 1.2744861 -0.64193827
0.52764177 1.3594456 -0.63822401
0.56861418 1.4478678 -0.63089085
0.50923198 1.2821305 -0.64045733
0.5503031 1.371946 -0.63681167
0.59626281 1.4699878 -0.63305897
0.21552925 0.64799953 -0.58032274
0.23445618 0.69456452 -0.58909428
0.25848588 0.75051367 -0.60167807
0.28109694 0.80250949 -0.60830474
0.29568857 0.83117265 -0.59653479
0.32397041 0.89935195 -0.60769689
0.35602292 0.97339946 -0.61874133
0.38865429 1.0483198 -0.62519419
0.42355025 1.1274387 -0.63063985
0.45771408 1.2039281 -0.62898016
0.50372565 1.310688 -0.63814723
0.54138732 1.3924474 -0.62968022
0.49013525 1.2467109 -0.64340222
0.5327611 1.3383973 -0.64396864
0.5596751 1.3932387 -0.62320721
0.020480152 0.077119023 -0.11089766
0.24467635 0.71753383 -0.59202385
0.26656839 0.77095151 -0.60160398
0.2899304 0.82536817 -0.6072911
0.30384257 0.85104948 -0.59346229
0.33415237 0.92450476 -0.60572535
0.37081811 1.0113165 -0.62239027
0.4022873 1.0825793 -0.62545323
0.43794009 1.1642174 -0.62917668
0.48823747 1.2814134 -0.64581674
0.521954 1.3567615 -0.6361903
0.56520665 1.4517905 -0.63162154
0.51152277 1.2985778 -0.647268
0.55072749 1.3822503 -0.64039564
0.59105402 1.4696462 -0.63203031
0.21503849 0.65239739 -0.58331728
0.23454496 0.70098627 -0.59346163
0.25645968 0.75128466 -0.60159773
0.27893645 0.80333924 -0.60821903
0.29337016 0.83206892 -0.59644604
0.32099062 0.89627439 -0.6050725
0.35549632 0.98065841 -0.62226099
0.38719913 1.0536672 -0.6273846
0.41635174 1.1182055 -0.62505662
0.4558937 1.2095621 -0.63091999
0.50085688 1.3122495 -0.63800818
0.5425123 1.4071234 -0.63487178
0.48909122 1.2545518 -0.64633501
0.52539504 1.3304707 -0.63997632
0.55585653 1.3927971 -0.62200838
0.02148102 0.081003293 -0.11389866
0.24406366 0.72210974 -0.59485543
0.26448926 0.7717433 -0.60152161
0.28762776 0.82625014 -0.60720307
0.30221236 0.85403246 -0.59457231
0.33248857 0.92554104 -0.60562682
0.37338457 1.0269465 -0.63042897
0.40076995 1.0880457 -0.62746614
0.43702653 1.1719478 -0.63211846
0.48133406 1.2743803 -0.64152855
0.5272764 1.3821328 -0.64628994
0.56095296 1.4535817 -0.63131398
0.50687093 1.2980839 -0.64599967
0.54853582 1.3872554 -0.64196581
0.58687395 1.4693408 -0.6308459
0.21459335 0.65677541 -0.5863111
0.23437123 0.70257694 -0.59486705
0.2567766 0.75592816 -0.60437298
0.27738607 0.80616194 -0.60950744
0.29398724 0.84092844 -0.60163581
0.32069305 0.90332502 -0.608769
0.35377482 0.98171943 -0.62215668
0.38659337 1.0600576 -0.63072479
0.4165231 1.1278117 -0.62930763
0.45175016 1.2087632 -0.62975806
0.49806592 1.3158509 -0.63884354
0.54116184 1.4151988 -0.63746554
0.48480377 1.2538502 -0.64517993
0.52428192 1.3384259 -0.64272147
0.56328225 1.4225414 -0.63358289
0.02121 0.081104741 -0.1138866
0.24364945 0.72661257 -0.59768611
0.26568455 0.77831423 -0.60564244
0.28565481 0.82700878 -0.60711497
0.30152893 0.85888481 -0.59706444
0.33167312 0.93052226 -0.60799986
0.37022546 1.0238416 -0.62796211
0.39808518 1.0881077 -0.62735069
0.43084565 1.1646649 -0.62774289
0.47807461 1.2756838 -0.64139354
0.5179885 1.3663114 -0.63859105
0.5571031 1.4551399 -0.63116014
0.50465107 1.3014888 -0.64685351
0.54342192 1.3843611 -0.63995463
0.57717746 1.4556226 -0.62458926
0.21312739 0.65726662 -0.5863111
0.23340027 0.7050941 -0.59627211
0.25303611 0.75076598 -0.60000968
0.2749323 0.804869 -0.60804766
0.28993705 0.8356666 -0.59758794
0.31644639 0.89803582 -0.60488147
0.35154054 0.98259521 -0.62205237
0.38254747 1.056881 -0.62831122
0.41284537 1.1268451 -0.62809575
0.44545349 1.2014676 -0.62549615
0.49552026 1.3193481 -0.63967842
0.54007888 1.4200515 -0.63914382
0.48079327 1.2530938 -0.64389223
0.51919645 1.3355986 -0.64051342
0.55953485 1.4241601 -0.63328069
0.21993002 0.6753642 -0.58674133
0.24248686 0.72921777 -0.59906238
0.26434091 0.78103155 -0.6069603
0.28351372 0.82782114 -0.60702693
0.29930574 0.85973555 -0.59697294
0.32927182 0.93144882 -0.60790086
0.36834633 1.0269374 -0.62903219
0.39672524 1.093437 -0.6294772
0.42695472 1.1637638 -0.62655687
0.47387943 1.2748835 -0.64025491
0.51587391 1.3721365 -0.64033431
0.55326718 1.45356 -0.6301229
0.49927548 1.2987264 -0.64473218
0.53934151 1.3860364 -0.63980764
0.57462096 1.461749 -0.62617725
0.21078965 0.65601903 -0.58470917
0.22834998 0.69622499 -0.58879679
0.25174823 0.75343663 -0.60135692
0.27231669 0.80176371 -0.60521442
0.28619841 0.83254051 -0.59486055
0.31177732 0.89289111 -0.60099506
0.34871542 0.98367846 -0.621948
0.37747338 1.0497112 -0.62359792
0.40730482 1.1218245 -0.62458146
0.44362596 1.2071351 -0.62730771
0.49015495 1.3165796 -0.63745195
0.5367409 1.4239445 -0.63975716
0.47411209 1.2428964 -0.63865435
0.51538843 1.3371531 -0.64037156
0.55363166 1.4215412 -0.63132739
0.21879731 0.67790318 -0.58817494
0.24051516 0.72994477 -0.59898454
0.26022184 0.77593851 -0.6026752
0.27805912 0.81674528 -0.59886175
0.2969076 0.8606416 -0.59688133
0.32512912 0.92837453 -0.60533118
0.36464977 1.0259938 -0.62774479
0.39229044 1.0883511 -0.62599891
0.42753726 1.1756755 -0.63174552
0.46931338 1.2742112 -0.63911664
0.51359606 1.3780118 -0.64207661
0.55064809 1.4596312 -0.63173568
0.49629235 1.3024724 -0.64544785
0.53794456 1.3941859 -0.6423071
0.57377231 1.472288 -0.62935048
0.22710082 0.69882613 -0.59020227
0.25103116 0.75807589 -0.60413098
0.27015755 0.80256808 -0.60512912
0.28487581 0.83341134 -0.59477198
0.31072512 0.89789975 -0.60342693
0.34745821 0.98884237 -0.62425756
0.37684655 1.0571461 -0.62682492
0.40354693 1.1188397 -0.62227947
0.44017395 1.2084765 -0.62717998
0.4838531 1.3116274 -0.63439232
0.52775478 1.4124806 -0.6341266
0.47382239 1.2528493 -0.64260548
0.51227587 1.3409007 -0.64119107
0.5487361 1.4210178 -0.63027579
0.2150877 0.67188108 -0.58358592
0.23789601 0.72873771 -0.59745336
0.25879553 0.77867234 -0.603993
0.27791819 0.82353985 -0.60281283
0.29239139 0.85547698 -0.59291679
0.32544374 0.9375478 -0.61017323
0.36254916 1.0291532 -0.62881446
0.38840801 1.0874461 -0.62476301
0.42594975 1.1790984 -0.6326834
0.4648813 1.2734768 -0.63797885
0.51034313 1.381768 -0.64287466
0.54799891 1.4657 -0.63334751
0.49604121 1.3093942 -0.64828265
0.53383571 1.3958458 -0.6421594
0.57114279 1.4784156 -0.63093579
0.22773789 0.70716566 -0.59604615
0.24898481 0.75882536 -0.60405028
0.26934361 0.80732161 -0.60779047
0.28601679 0.84431356 -0.60127747
0.31107256 0.90698302 -0.60838437
0.34617603 0.99400723 -0.62656629
0.37381133 1.0582997 -0.62671298
0.40416834 1.1306413 -0.62761796
0.44006538 1.2162226 -0.63014996
0.48490605 1.3250383 -0.64009362
0.5292964 1.4293664 -0.64036953
0.47186279 1.2585435 -0.64451379
0.50864774 1.3403363 -0.6399461
0.54793811 1.4314617 -0.63357651
0.21455395 0.67625684 -0.58659708
0.23726277 0.73323691 -0.60036016
0.25866127 0.78527635 -0.60819441
0.2770637 0.82834625 -0.60541695
0.29450324 0.86648118 -0.59927988
0.32355571 0.94057631 -0.61130881
0.36033159 1.0323458 -0.62988365
0.38841647 1.0970067 -0.62912947
0.42105338 1.1761875 -0.63031083
0.46066901 1.2705777 -0.63583845
0.50479794 1.3779529 -0.64084268
0.54794472 1.478339 -0.63745099
0.49149117 1.3087367 -0.64715326
0.53252208 1.4017737 -0.64387321
0.56932908 1.4867262 -0.63339049
0.22700632 0.71170807 -0.59892958
0.24678324 0.75962061 -0.60396957
0.26567096 0.80421466 -0.60495847
0.28359571 0.84426343 -0.60109824
0.30804408 0.90387589 -0.60576218
0.34613901 1.0034304 -0.63118112
0.37066728 1.0594825 -0.62660098
0.40081626 1.131911 -0.62749851
0.43401831 1.2112175 -0.62692457
0.48027551 1.3222672 -0.6380077
0.52657962 1.4354708 -0.64189368
0.46643415 1.2558411 -0.64220703
0.50524807 1.3441676 -0.64076495
0.54040313 1.4213159 -0.62992418
0.21080643 0.67123592 -0.58200884
0.23549676 0.73106682 -0.59882891
0.25441924 0.78020513 -0.60391021
0.27466902 0.82921922 -0.6053291
0.29199967 0.86740172 -0.59918791
0.32175252 0.94161391 -0.61120915
0.35653391 1.0314099 -0.62859672
0.38430315 1.0961645 -0.62789339
0.41745356 1.1775478 -0.63018668
0.45524549 1.2678055 -0.63356543
0.49829039 1.3709753 -0.63678133
0.54004568 1.4713593 -0.63376629
0.48507312 1.3038647 -0.64404345
0.52813536 1.403576 -0.64357686
0.56498814 1.4853976 -0.63220644
0.22328293 0.70662153 -0.59441614
0.24380288 0.75351018 -0.60060918
0.26475009 0.80899161 -0.60761899
0.28396815 0.85317177 -0.60628152
0.30482638 0.90276277 -0.60440361
0.34003872 0.99205518 -0.6238386
0.36836225 1.0627135 -0.62763822
0.39606547 1.1288924 -0.62519711
0.42824405 1.2061012 -0.6237005
0.47400969 1.3172625 -0.63494986
0.51994056 1.4305409 -0.63900524
0.46045598 1.2508305 -0.63901448
0.50222939 1.3478405 -0.64158338
0.54118776 1.4360589 -0.63517368
0.023073725 0.092147596 -0.12285741
0.23296061 0.72981501 -0.59729809
0.25101405 0.77703059 -0.60102725
0.2716853 0.82805985 -0.60389584
0.28820291 0.86423099 -0.59651518
0.31771982 0.93846738 -0.60864043
0.35396904 1.0304439 -0.6272015
0.38128754 1.097355 -0.627662
0.41104782 1.170284 -0.62581736
0.45240024 1.2713315 -0.63443428
0.49912801 1.3855226 -0.6422922
0.53490388 1.4708259 -0.63272947
0.48124444 1.3054261 -0.64376789
0.51922655 1.3921244 -0.63784826
0.55811357 1.4805588 -0.62944055
0.21889727 0.69962472 -0.58842492
0.24304174 0.75814104 -0.60338181
0.26322967 0.81175989 -0.60890603
0.27955627 0.84799427 -0.60223705
0.3030079 0.90572429 -0.60557061
0.34004191 1.0013853 -0.62855732
0.36687979 1.0679996 -0.6298241
0.39359745 1.1322752 -0.62604952
0.42708701 1.2138319 -0.62666917
0.46870694 1.3144073 -0.63272774
0.5167231 1.4321461 -0.6388548
0.45767406 1.2543607 -0.639902
0.50311947 1.3624253 -0.64705896
0.53203768 1.4246838 -0.62947339
0.2085056 0.67628032 -0.58487564
0.23411201 0.74019456 -0.60448456
0.2518549 0.78268421 -0.6051445
0.27078682 0.83286184 -0.60649854
0.28647542 0.86713409 -0.59771383
0.31440818 0.93736345 -0.60730696
0.3517302 1.0336164 -0.62827003
0.37814015 1.0985211 -0.62754625
0.40920359 1.1758018 -0.62781632
0.44633481 1.2662685 -0.63129413
0.49739552 1.3936011 -0.6449734
0.53076977 1.4702752 -0.63169312
0.47592688 1.3025666 -0.64165044
0.51837224 1.4024228 -0.64142084
0.55788738 1.4932384 -0.63363165
0.22006601 0.7098912 -0.59574467
0.24162529 0.76082051 -0.60472745
0.26334962 0.81551111 -0.61156517
0.27727422 0.84881699 -0.60214722
0.30255601 0.91277212 -0.60926193
0.33655557 1.0003281 -0.62724602
0.36481389 1.0691261 -0.62971145
0.39257899 1.1398466 -0.62920111
0.42361572 1.2151246 -0.62654144
0.46792117 1.3245388 -0.63647825
0.5093407 1.424981 -0.63505626
0.45825258 1.2643714 -0.64371413
0.50003779 1.3650979 -0.64787513
0.52783716 1.4263226 -0.62932307
0.21127069 0.68834281 -0.59383249
0.23024684 0.73508495 -0.60004807
0.24902244 0.78148896 -0.60366184
0.27078155 0.83669317 -0.6091004
0.28473464 0.87003464 -0.598912
0.31110492 0.93624866 -0.60597378
0.3502942 1.0378361 -0.63051516
0.37829366 1.1059774 -0.63078845
0.40434378 1.1727713 -0.62557083
0.44729909 1.2805713 -0.63717258
0.48938987 1.3842354 -0.64011675
0.52643764 1.4719076 -0.63153881
0.47004819 1.295377 -0.63755471
0.5184297 1.413909 -0.64577234
0.55104792 1.4884192 -0.63071001
0.22103992 0.71530324 -0.60010523
0.23964541 0.76151854 -0.60464674
0.25977463 0.8123436 -0.60873413
0.27590466 0.84966207 -0.6020574
0.29864588 0.90959221 -0.60664117
0.33307743 0.99925935 -0.6259352
0.36174476 1.070244 -0.62959886
0.38884091 1.1367922 -0.62690103
0.41865498 1.2121633 -0.62422347
0.46951875 1.3411449 -0.64314288
0.51157171 1.4440925 -0.64204991
0.44996542 1.2528776 -0.63746679
0.49382752 1.3579782 -0.64389294
0.5245834 1.4300846 -0.63007188
0.20828238 0.68515337 -0.5907501
0.22887212 0.73771751 -0.60142249
0.24881805 0.78814608 -0.60777742
0.2685287 0.83749145 -0.60901189
0.28365311 0.87496585 -0.6013996
0.30919173 0.939246 -0.60710895
0.34731197 1.038914 -0.63040584
0.37294462 1.1007894 -0.62731481
0.40348771 1.178334 -0.6274451
0.44288477 1.2797593 -0.63603652
0.49007928 1.3987999 -0.64562261
0.52054429 1.4691768 -0.62946784
0.46700677 1.2989941 -0.63840759
0.50945997 1.4024386 -0.64004844
0.5458495 1.4879144 -0.62968451
0.21782188 0.71214801 -0.59707236
0.23805593 0.76424205 -0.60599178
0.25742108 0.81316626 -0.60864818
0.27278641 0.84850943 -0.60065019
0.29670107 0.91257364 -0.60780716
0.3321957 1.0065521 -0.62944573
0.35858449 1.0714449 -0.62937361
0.38620052 1.1401433 -0.62787139
0.41669345 1.2156678 -0.62512726
0.46618742 1.3448234 -0.64397401
0.50236571 1.432606 -0.63643044
0.44536474 1.2521759 -0.636316
0.48970506 1.3596109 -0.64360696
0.52332056 1.4406203 -0.63336533
0.2057634 0.68390316 -0.58917302
0.22435834 0.7306658 -0.59553534
0.24409099 0.78101861 -0.60209686
0.26480794 0.83432776 -0.60623425
0.28079146 0.87078613 -0.59872806
0.30570653 0.93817556 -0.60577619
0.34492555 1.0421093 -0.63147306
0.37111714 1.1062001 -0.62943685
0.39779246 1.1731747 -0.6241408
0.44147894 1.2855127 -0.6379053
0.48198268 1.3894387 -0.64076793
0.51841426 1.4774472 -0.63195682
0.46228403 1.298386 -0.63714522
0.50539118 1.4018832 -0.63897192
0.54136533 1.4875001 -0.62865955
0.19250122 0.64922476 -0.57489848
0.21289961 0.70318216 -0.58960557
0.23475416 0.76103866 -0.60305977
0.25522885 0.81393015 -0.60856223
0.27107283 0.85136086 -0.60187775
0.29516035 0.91247112 -0.6077109
0.32722971 1.0013442 -0.62572479
0.358448 1.0809294 -0.63385272
0.38584927 1.1498967 -0.63198966
0.41395661 1.2190828 -0.62603056
0.45945632 1.3354479 -0.63883567
0.49891278 1.4363544 -0.63719153
0.44102016 1.25137 -0.63516563
0.48347726 1.3545626 -0.64058715
0.5192762 1.4400421 -0.63231552
0.20397677 0.68451095 -0.58910042
0.22459 0.73522919 -0.59836191
0.24323156 0.78569818 -0.60481238
0.26384786 0.83912468 -0.60883486
0.27902132 0.87367475 -0.5999254
0.30545607 0.9422282 -0.60914439
0.34064117 1.0389519 -0.6290108
0.36651677 1.103098 -0.6270833
0.39297527 1.1700963 -0.6218977
0.43706295 1.2846773 -0.63676935
0.48192337 1.3996832 -0.64438814
0.51638645 1.4856672 -0.63444436
0.45703423 1.2954521 -0.63503134
0.50363839 1.4100499 -0.6414628
0.53780484 1.4914201 -0.62921524
0.19480009 0.66299242 -0.58560812
0.21216144 0.70763117 -0.59256208
0.23329265 0.76365042 -0.60448533
0.25366631 0.81668067 -0.60984802
0.26869601 0.85218674 -0.60178792
0.29128107 0.90925705 -0.60509169
0.32750773 1.0075662 -0.62923402
0.3546434 1.079923 -0.63259155
0.38183692 1.1489404 -0.63077986
0.41047016 1.2203366 -0.62590277
0.45264459 1.3281157 -0.63481152
0.49505475 1.4356481 -0.63613045
0.44127011 1.2635207 -0.63999319
0.48180863 1.3625835 -0.64332092
0.51833999 1.4503691 -0.63575697
0.20269984 0.68704611 -0.59053189
0.22259884 0.73590505 -0.59828407
0.24288994 0.79238147 -0.608926
0.26150396 0.83993191 -0.60874641
0.27789402 0.87859976 -0.60241157
0.3041037 0.94736618 -0.61141205
0.34142014 1.0483828 -0.63360631
0.36487898 1.1084251 -0.62920445
0.3932409 1.1820197 -0.62707394
0.43563101 1.2915566 -0.63950306
0.47555175 1.3946605 -0.6412726
0.50455272 1.4629499 -0.62460387
0.45486796 1.301158 -0.63687229
0.49727491 1.4049984 -0.63852996
0.53897768 1.5085118 -0.63513416
0.19363414 0.66546661 -0.58706748
0.21266687 0.71596909 -0.59839922
0.23344383 0.76827538 -0.60725534
0.25138256 0.81746078 -0.60976189
0.26696151 0.85503113 -0.60301477
0.29007122 0.91424567 -0.60751849
0.32266977 1.002298 -0.62551433
0.35254377 1.0800132 -0.63247824
0.37712047 1.1458365 -0.62848151
0.40479553 1.2151058 -0.62268388
0.44946441 1.3317024 -0.63564342
0.48932347 1.4328289 -0.63400954
0.43539524 1.2583892 -0.63680679
0.4779411 1.3640851 -0.64303493
0.51329941 1.4498246 -0.63455504
0.19917692 0.68190974 -0.58594757
0.2224673 0.74239177 -0.60256112
0.2417511 0.79310793 -0.60884237
0.25860924 0.83869565 -0.60731387
0.27618036 0.88145649 -0.60360789
0.30213505 0.95035064 -0.61254525
0.33645588 1.0431087 -0.62996846
0.36240235 1.111666 -0.63020653
0.38915825 1.1811231 -0.62576711
0.4288803 1.2842321 -0.63536555
0.4678354 1.3851248 -0.63642323
0.50712186 1.4844686 -0.63221854
0.45256403 1.3069633 -0.63857543
0.49545592 1.4131001 -0.64116681
0.53138024 1.5013365 -0.63150543
0.18956923 0.65848303 -0.58087873
0.20955832 0.71275657 -0.59536773
0.23076439 0.76701123 -0.60574901
0.2495575 0.81621343 -0.60830432
0.26274198 0.84873873 -0.59897506
0.28827184 0.91714972 -0.60868335
0.32045975 1.0053806 -0.6266135
0.34885779 1.0789485 -0.63121766
0.37454388 1.149125 -0.62945032
0.39903319 1.2098927 -0.6194663
0.44566199 1.3330551 -0.63550431
0.48434597 1.4321368 -0.63294971
0.43404782 1.2661772 -0.63972789
0.47162077 1.3590308 -0.64001787
0.51058412 1.4558061 -0.63619816
0.19789675 0.68443543 -0.58737904
0.21809466 0.73527086 -0.59667695
0.23961027 0.79382885 -0.60875875
0.25852138 0.84351385 -0.60991305
0.27307442 0.88025343 -0.60222626
0.29882705 0.94918883 -0.61121273
0.33279642 1.0421019 -0.62857425
0.36023232 1.1118325 -0.62997371
0.38506556 1.1801581 -0.6245845
0.42230168 1.276837 -0.63122982
0.45855662 1.3712138 -0.629695
0.50652885 1.4971033 -0.63646275
0.44657251 1.3018197 -0.63547492
0.49284559 1.4190694 -0.64272606
0.52619523 1.5008152 -0.63032389
0.19001503 0.66665751 -0.58692646
0.20697427 0.7114858 -0.59381473
0.22980866 0.77165776 -0.60851806
0.24719253 0.8170051 -0.60821837
0.26019827 0.84959543 -0.5988856
0.28422901 0.91396409 -0.60606509
0.31679818 1.0043186 -0.62530386
0.34417331 1.0758631 -0.62881041
0.37353817 1.1535848 -0.63150722
0.39759901 1.2176318 -0.62242967
0.44012958 1.3301159 -0.63342428
0.47848952 1.42927 -0.63098031
0.42748469 1.2568353 -0.63437623
0.46446076 1.351872 -0.63590276
0.50385112 1.4508815 -0.63320225
0.19434008 0.67929775 -0.58279634
0.21837056 0.74375069 -0.60240424
0.2373074 0.7945931 -0.60867506
0.25421438 0.83828723 -0.60579371
0.27107969 0.88318467 -0.60342222
0.29468101 0.94600278 -0.60864812
0.33037132 1.0452628 -0.62964034
0.35693008 1.1129709 -0.6298573
0.37963223 1.1717999 -0.62022549
0.41839835 1.278198 -0.63109648
0.45731297 1.3814688 -0.63331318
0.49972221 1.4920633 -0.63366812
0.44558787 1.3119426 -0.63928914
0.48928276 1.4228361 -0.64350504
0.52395457 1.5091246 -0.63276798
0.18927068 0.6672262 -0.58685589
0.20619063 0.71598542 -0.59669441
0.22890814 0.77628183 -0.61128622
0.24498968 0.81774002 -0.60813236
0.26196435 0.8605445 -0.60537696
0.28297284 0.91894543 -0.60849047
0.31334564 1.0031803 -0.62399465
0.33983094 1.0726565 -0.62640399
0.36895582 1.1504055 -0.62920994
0.39736679 1.2242942 -0.62639177
0.43573764 1.329212 -0.63231534
0.47677648 1.437279 -0.63356084
0.42721733 1.2666454 -0.63831282
0.45799288 1.3443975 -0.63193178
0.49540225 1.4390638 -0.62766963
0.19649589 0.68936819 -0.59031361
0.21658254 0.74434382 -0.6023258
0.23778433 0.8031112 -0.61426818
0.25466239 0.84697241 -0.61116797
0.27314338 0.8941319 -0.60977107
0.29167935 0.94472784 -0.60731661
0.33112851 1.0566642 -0.63540655
0.35486394 1.1160505 -0.63085824
0.38175663 1.187843 -0.62751389
0.41924006 1.287963 -0.63496292
0.45391816 1.3826618 -0.63316929
0.49382943 1.4867014 -0.63087475
0.44362247 1.3130218 -0.63915193
0.48455563 1.4196224 -0.64150196
0.52517873 1.5236624 -0.63781106
0.18951567 0.67339152 -0.59137237
0.20532601 0.71840173 -0.59809613
0.22786903 0.77879781 -0.61262918
0.24440932 0.82234627 -0.61078787
0.2614136 0.86522168 -0.60791844
0.28333977 0.92372596 -0.61091501
0.31181815 1.0060217 -0.6250934
0.33817127 1.0755806 -0.62743843
0.36898819 1.1599178 -0.63344228
0.39305967 1.2209687 -0.62420499
0.43346798 1.3293535 -0.63217682
0.47177851 1.434099 -0.63159209
0.42177871 1.2613195 -0.63512987
0.4591569 1.356612 -0.63657689
0.49172762 1.4403986 -0.62751931
0.19378926 0.68605357 -0.58723432
0.21420059 0.74292678 -0.60087472
0.2346701 0.79977924 -0.61138761
0.25079882 0.8415972 -0.60704887
0.27090117 0.89482462 -0.60977107
0.29227355 0.95175147 -0.61091363
0.32849658 1.0564978 -0.63540655
0.35129598 1.1148459 -0.62974089
0.37581131 1.1803058 -0.62315601
0.41071784 1.2739369 -0.62783062
0.45111024 1.3829817 -0.63302535
0.48900381 1.4859068 -0.62984109
0.43766525 1.307832 -0.6360532
0.47610965 1.4057454 -0.63486505
0.51227999 1.5008948 -0.62812001
0.18596573 0.66823983 -0.58678538
0.20485382 0.72093475 -0.59957343
0.22568628 0.77950668 -0.61254722
0.2414923 0.82104248 -0.60941714
0.25767201 0.86197859 -0.605196
0.28121632 0.92670316 -0.61207843
0.30851787 1.0028375 -0.62258101
0.33419728 1.0745708 -0.62617952
0.36486369 1.1589372 -0.63223332
0.38932186 1.2222397 -0.62407762
0.42583749 1.3197896 -0.62718952
0.46331042 1.4191226 -0.62607753
0.41865054 1.264845 -0.63601464
0.4542762 1.3558949 -0.63547826
0.48517695 1.4331828 -0.62378341
0.19019958 0.68090987 -0.58265269
0.21211366 0.7435981 -0.60079646
0.22889292 0.78858405 -0.6029163
0.24888532 0.844437 -0.60830373
0.26581734 0.88747704 -0.60452461
0.28696373 0.94434637 -0.60588664
0.32437986 1.0512269 -0.63177145
0.35000667 1.1223562 -0.63297594
0.37219426 1.1815257 -0.62303287
0.40752596 1.2774411 -0.62869745
0.44760558 1.3866279 -0.63382107
0.48094243 1.4731746 -0.62441325
0.43223137 1.3049387 -0.63380665
0.47258705 1.4095207 -0.63549817
0.51009732 1.5070686 -0.62953931
0.20066059 0.71380872 -0.59358907
0.22242343 0.77624345 -0.60961688
0.23919605 0.82178748 -0.60933095
0.25710282 0.86887288 -0.60905212
0.27800366 0.92548931 -0.61072129
0.30443802 0.9995752 -0.62006944
0.33386648 1.0840501 -0.63065219
0.35950756 1.1536132 -0.62884933
0.38235945 1.2125695 -0.61880493
0.42193368 1.3211156 -0.62705213
0.46056452 1.424984 -0.62774819
0.44953784 1.3551161 -0.63438004
0.48633239 1.450107 -0.62990701
0.18780255 0.67957443 -0.58107799
0.20883468 0.73641932 -0.59491551
0.22434601 0.78133988 -0.59724265
0.24540739 0.84113443 -0.60552925
0.26519659 0.89444071 -0.60829538
0.28624105 0.95145416 -0.60948265
0.32135627 1.0522276 -0.63166165
0.3447811 1.1170273 -0.62950802
0.36949044 1.1848205 -0.62396783
0.40317616 1.2764914 -0.62756526
0.44435817 1.3901774 -0.63461632
0.48327172 1.4946376 -0.63216835
0.42765284 1.3041065 -0.63268405
0.47212142 1.4219916 -0.63998264
0.50340331 1.5019741 -0.62678468
0.19879606 0.7144019 -0.59351379
0.2203097 0.77686048 -0.60961688
0.23638965 0.82049614 -0.60787439
0.25162059 0.85941964 -0.60247439
0.27917349 0.93873364 -0.61818373
0.3029426 1.0046804 -0.62237132
0.32912445 1.0765895 -0.62595499
0.35754284 1.1590106 -0.63090414
0.38300687 1.2267673 -0.62485182
0.41815689 1.3223885 -0.62691474
0.45564258 1.4241929 -0.62669128
0.41058013 1.2642416 -0.63573438
0.44421336 1.3520851 -0.63232583
0.4783456 1.4405453 -0.62527633
0.1854679 0.67816007 -0.57957512
0.20740061 0.73900908 -0.59628844
0.22223458 0.78201509 -0.59716058
0.24433479 0.84590983 -0.60812658
0.26331389 0.89730191 -0.60948944
0.28422225 0.95440102 -0.61061454
0.31908107 1.0552981 -0.63272625
0.34456101 1.1244962 -0.63274181
0.3688001 1.1945958 -0.62807572
0.4029825 1.2876372 -0.63242787
0.44025195 1.3915571 -0.63447189
0.47383156 1.4805366 -0.62586409
0.42608312 1.310945 -0.63550711
0.46660289 1.4190003 -0.63798249
0.49450693 1.4901824 -0.62143451
0.19630775 0.71307003 -0.59196186
0.2175056 0.77160221 -0.60526329
0.23359163 0.81919581 -0.60641825
0.25171471 0.8683207 -0.60764569
0.27655876 0.9395799 -0.61808556
0.30068609 1.0077183 -0.62346941
0.32874182 1.0860677 -0.63042599
0.35655111 1.1644067 -0.63295799
0.38223481 1.2366859 -0.62871033
0.41843253 1.3369316 -0.63245314
0.45143822 1.4256042 -0.62654346
0.40696487 1.2654866 -0.63560259
0.43951613 1.3503281 -0.63108808
0.47779566 1.4531542 -0.6294539
0.017423635 0.084149994 -0.11517221
0.20595472 0.74159688 -0.59766102
0.22399195 0.79264462 -0.60406494
0.24197148 0.84666234 -0.60803807
0.26202583 0.90221506 -0.61197054
0.280316 0.95109165 -0.60805243
0.31540543 1.0541722 -0.63144201
0.34198982 1.1276913 -0.63374126
0.36503708 1.1913941 -0.62583631
0.39792824 1.2844843 -0.63029635
0.43753898 1.3973433 -0.63620549
0.47160307 1.4886885 -0.62834531
0.41722673 1.296985 -0.62846798
0.45660815 1.4018004 -0.63042814
0.4960455 1.50957 -0.62804627
0.17987949 0.6694048 -0.58757377
0.1949897 0.71559471 -0.59336334
0.21485624 0.77028167 -0.60375857
0.23346013 0.82393777 -0.60907239
0.24869139 0.8670522 -0.60623968
0.27392539 0.94036448 -0.61808556
0.2972565 1.0065234 -0.62216163
0.32626626 1.0892068 -0.63145846
0.35321262 1.1654965 -0.63283694
0.3749727 1.2226127 -0.62138444
0.41047838 1.3249993 -0.62650239
0.45088547 1.4380611 -0.63093793
0.43494251 1.3494567 -0.62999165
0.47059277 1.4447629 -0.62572181
0.18025054 0.67350608 -0.57492471
0.20449699 0.74418271 -0.59903324
0.22183578 0.79326308 -0.60406494
0.23774531 0.83620042 -0.60132527
0.25899664 0.90093189 -0.61058891
0.27828673 0.95402604 -0.60918415
0.31247839 1.0551165 -0.63133216
0.33756441 1.1244264 -0.63139129
0.36029482 1.1881752 -0.62359774
0.39444664 1.2835417 -0.62916434
0.43493527 1.4030826 -0.63793808
0.46438789 1.4812188 -0.62467909
0.41634235 1.3069935 -0.63227636
0.45534787 1.4120494 -0.63398474
0.48647082 1.4945021 -0.6218347
0.1774673 0.6680721 -0.58597493
0.1935003 0.71810496 -0.59483981
0.2131753 0.77295226 -0.60510141
0.23105715 0.82462806 -0.60907239
0.24718131 0.8678413 -0.60614896
0.27121186 0.94122452 -0.61798745
0.29363489 1.0053768 -0.62085426
0.32174975 1.0859888 -0.62905431
0.34910131 1.1644579 -0.63162899
0.36989281 1.2194695 -0.61920154
0.40797865 1.3285642 -0.62733346
0.44496444 1.4351027 -0.62897247
0.42784905 1.3421036 -0.62602878
0.46980208 1.4573636 -0.63004678
0.17935121 0.67308444 -0.57485384
0.19912992 0.73305297 -0.59025586
0.2172794 0.78599435 -0.5983935
0.23706198 0.84303886 -0.60526478
0.25610855 0.89765918 -0.60792059
0.27543947 0.95492524 -0.60908461
0.30933812 1.0561156 -0.63122237
0.33346868 1.1233885 -0.63015831
0.35731155 1.191514 -0.62453151
0.38984677 1.2826229 -0.6280328
0.4301424 1.4000949 -0.63591582
0.46267155 1.4916359 -0.62803698
0.41236654 1.3083924 -0.63200456
0.45034388 1.4113539 -0.63276613
0.48627251 1.5094351 -0.62686801
